x,y,z
0.005002479661278602,0.5760519495818894,0.07437586240679535
-0.18627421209831452,0.6396122742179566,0.036101640452475194
-0.24371905753834006,0.4756762433020713,0.026663146759130108
-0.09810427742142162,0.5750436525108084,0.08514348483613728
-0.08948804812769567,0.40994166164868506,0.1097205394834167
-0.15324899523175906,0.5086864023470924,0.14946072754312711
-0.17514564906783736,0.42267537997673915,-0.1364085163548758
-0.006068771990285063,0.5824085154536365,0.03572696951947447
-0.10217084605451777,0.6511083611999264,0.020080808757670918
-0.18684868265752522,0.2442794070970041,-0.06384112249178954
0.07814449651953351,0.2609369884949423,-0.056765014181987775
-0.061941206192595376,0.22503747101432106,0.1836920674676376
-0.002872903526744497,0.6923505496125406,0.0027336926332581224
0.06638550751550429,0.8659052505393966,-0.08004234727204791
0.09510105022921296,0.23750638708309793,-0.20664598459284916
0.17118776476654932,0.3853639642959503,-0.09699007645538771
-0.08522019423886092,0.30840091021167726,-0.18402933982339775
0.025429062826579005,0.5388074036028906,0.1330303557871048
-0.11389707626889514,0.40840764042487543,0.067809177959861
0.16187201037894064,0.2178242905026256,0.09995456616944363
0.2594133062979049,0.25861436009216215,-0.018273106925298634
-0.15779926666541655,0.44865352605093767,-0.18883513007785824
0.019516580610735718,0.16143938213843467,0.0496162573177874
-0.13761956678136383,0.25397212652935214,-0.15276794044222708
-0.2594561324123348,0.46925814147126055,-0.010425889674894233
-0.24566071251781918,0.5364412671231443,0.013954923776514694
-0.2239101879517958,0.45852178199181776,-0.0796102340992006
-0.11495807288023041,0.42154175904036806,0.03515572584266298
0.034855650235771675,0.4894524219075397,0.16511842005806493
-0.06331009934754984,0.6684138295114981,0.17307859177316964
-0.11429572618020924,0.6125325134982598,0.19529481740727545
-0.02081692246580968,0.39874306800975956,-0.18298433305524775
-0.007498243104025386,0.4502771541147584,0.16274424527555284
-0.015909474599119962,0.22244689835668516,-0.18291509833864808
-0.23872665945320323,0.5115426280828698,0.12000827555418637
0.024972571218039693,0.591949154446401,-0.21667541694937184
-0.03468324557537471,0.24685348485438965,-0.07004514735189439
0.020124935879626348,0.8540915617745477,0.08563261075894775
-0.14686450973223017,0.22625593948893258,-0.11478346814404009
-0.15924883980504864,0.3949030829904754,0.1667113605375405
0.014212494073030464,0.5124347878699173,0.14448054350714853
-0.17600539238155521,0.4634746219844309,-0.23187316820413498
-0.03330548113518595,0.7174980129286581,-0.07036548755615013
0.034185080369436543,0.6235212084327267,0.1770987848060117
0.19339074833931383,0.23621760915286705,0.1745392036624978
-0.01097071231061989,0.9213130323397418,0.06001714386673931
0.015685083455125936,0.650721921778765,-0.18378980312423793
0.05597501032709902,0.6702242537307164,0.049812742049924814
-0.14681375564903718,0.4306229300286805,0.23246073845266724
-0.05791743451164322,0.7699671206688242,-0.11630005545200292
-0.2152978094901768,0.4245211628827075,-0.09353793141175012
-0.17721284669689824,0.2846281343019533,-0.07267453199920332
-0.17032208160248005,0.44607769346850945,0.06757535442730053
0.04962530649085277,0.6378931088932828,0.04229321302397452
0.0231751747085487,0.5759274472927867,-0.24372061848441526
0.17782850466135086,0.2303854568765111,0.1723660294333379
-0.19907292206702035,0.245785086392975,0.026920753171348684
-0.08708913051086775,0.6012914444351105,-0.10120584174839582
0.1493143135458825,0.33099384901042356,0.1660681944697028
0.133497496510314,0.2378504643613099,-0.2006367518156239
0.018724925339107364,0.38422114885389536,-0.044753864244567454
-0.13825157815566522,0.563885270592357,-0.2455341075645624
-0.045816938907122164,0.5259186860078688,-0.043142701265295215
-0.15810204857555601,0.44609946455018845,-0.17918130543362493
0.012327656920423523,0.36367574933057045,-0.19794536488580342
-0.07437806372604044,0.8009673961008716,0.02955833670484695
0.16675317190217756,0.2232322026184919,0.03337683429122151
-0.13521123519746542,0.5363252120755782,-0.08049118567198119
0.1367273461916645,0.33738964877039973,-0.17013336774611268
-0.07185829525495141,0.486418267482032,0.05006654834958662
-0.05286760301121857,0.39564142477628145,0.15062264880619058
-0.18474714080104437,0.4805302316936952,-0.11996145873149963
0.13673743973577682,0.5244417274056842,-0.009373263359260177
-0.016735072907334798,0.22504653597109261,-0.18993098842005868
0.032465610449000766,0.8547149762822797,-0.05511936819407412
0.04929599935433236,0.7677834078771834,0.0044198659699707845
-0.08964011268014957,0.41609630442639867,0.16984665315441178
-0.14235871717101328,0.565115178939075,-0.23706488291702463
0.08655100728522161,0.2674617590284779,-0.23355078604914153
0.09510402125870177,0.5309125077364336,0.11384577480246824
0.13484006329165205,0.2402441112817233,0.025888649821134292
-0.07097587233928952,0.5230458529503914,-0.18974490711547165
-0.09384350187153544,0.7193938586575922,-0.14572809327640224
-0.16493585287406753,0.43896118053794553,0.04580949576457792
-0.09650468311571779,0.4418319740804316,-0.22997548058369313
-0.22184937873737667,0.5730020168162661,-0.06639443821489352
0.013170904552155565,0.5922679874572918,-0.21856279235866338
-0.11924619189197502,0.4380423526453825,-0.21147242543637187
-0.16284365954152075,0.5065335556428566,0.01042701772717463
0.0006390221310810622,0.328159599420915,-0.2102503040542498
0.032172333367363956,0.6108715089781194,0.228255914378644
0.02209612610568508,0.6940038880714856,0.08341288179546531
0.028896565113702345,0.22889539522699323,0.2008926480319482
0.0984537207481381,0.8777537525513167,0.0166621781655966
-0.20373494791129096,0.37994507756364304,-0.12385763661741864
-0.08660928978441741,0.7812112284542981,0.032963804804962776
-0.16205093788012115,0.29742664415408615,0.10294304264947277
-0.17186507198261358,0.440089088720304,-0.09141660460772158
-0.1844792377465283,0.39534844445427575,0.006274438605398797
0.01607491180061092,0.8189034971587086,-0.08065992684466294
0.17258861175660006,0.3265293497186055,-0.13334903054945782
0.029612223268635184,0.4002545607818363,-0.19595393272413736
-0.02675063342188043,0.43231452220484295,-0.16211353606036877
0.015965510748771852,0.6351974921469317,0.1570610971256797
-0.12420538692724925,0.5006055133642189,0.16404883919007873
0.04685210183881188,0.0027500306132508655,0.030316859765121926
0.12332116422133675,0.829796104712435,0.03566647131569614
-0.03747550866025672,0.7969004885260222,0.09237500100257155
-0.016604814097841755,0.2292654000565965,-0.19942050206746287
-0.15312498611030312,0.40762183714621614,0.16880510152773937
-0.21998389141464134,0.4436942993791366,0.007374632618038349
0.06571155417563507,0.37815239522698924,-0.1876049463919523
-0.20663137624946368,0.4453805489698126,0.1348921642755594
-0.07656204372973269,0.23544868520465506,-0.03035897974648987
-0.02307792502160465,0.5330047924514545,-0.07462367023914786
-0.13883148134394332,0.6222706840635,0.1895846712556277
0.041738966503833165,0.8880302108898122,0.07405206300040316
0.005666292851187886,0.7970795181765981,0.006573459625605708
-0.22638347688936336,0.571319791831821,0.07851781620304105
-0.13250938195412426,0.34061599925651576,-0.10347916398387959
-0.15772921585550598,0.6302169776852854,0.11459828051582875
-0.02283321320912253,0.25003782033239996,0.035498691261978105
-0.17902211442129137,0.4487079585730439,-0.10244853349688962
-0.1540200078857232,0.4258370083891248,0.07761581484657126
0.029226254341899422,0.362241463227738,-0.06265146443951672
0.16441816770169027,0.41414582843828884,0.09422126158768634
-0.025437797376638673,0.8771724787138028,0.06272280975878267
-0.18646006889636185,0.39202339107602274,0.025688033505352342
0.019216436477694856,0.7666546940619464,-0.05221935989377577
0.1755476709952533,0.22375118374538064,0.056617606244374445
0.23402465913640796,0.2285411609086579,0.08096382205718076
0.15435133777572543,0.43027705542441935,0.10045902764089915
0.09018581733454882,0.2957902081721509,0.21550141095390363
-0.012066729135213334,0.7632356507442227,0.033815278528630636
0.026187205389181657,0.13902872088267726,-0.04114448005303131
0.20595739688486972,0.20747822006516947,-0.08122481346571414
0.10363139240498091,0.30154294009366855,0.20647417411278687
0.0021977751854832667,0.4427042858175947,0.17829386774895864
-0.0025897958839604445,0.36056540844224183,0.18387730118478965
-0.003453330979260384,0.49421169380608526,-0.14216418305158984
-0.08744112561565272,0.6311370873986775,0.20164179847029629
0.02676958604149263,0.8331952040396735,-0.06310075108031693
-0.09810948782084584,0.23435925562979204,0.048198669956650085
-0.1338742997509842,0.5715151069659226,0.15921895740463293
-0.24747542235276968,0.5259377511044939,0.08547338867813503
0.2143689178172804,0.31572716686308905,0.08101272799537877
0.05000089596847743,0.3679702003064872,-0.025313967408879548
-0.10163366054708961,0.5662750392038732,0.08528429736803361
0.025508107138053647,0.7616535130642603,0.10933672095936899
-0.16653631640729885,0.4833435010661201,-0.14883014425129662
0.0392601190844889,0.2676823438804518,-0.06130166405619421
0.0420038807728375,0.2109818423853373,0.04033038649641947
0.14288368332359735,0.38172592791980603,0.1443853028848685
0.20831846697898604,0.3668989869111268,0.0458836714075882
-0.008793893728952715,0.7150157158283752,0.09389436068442335
-0.1638856852059832,0.6492717231644977,-0.014514264586631794
0.14166043891002839,0.2311139798882749,-0.0669827920636819
0.04534786165802876,0.25386041623140126,-0.033514733531267674
-0.1305432399512249,0.39713601794115144,0.029140608980528393
0.023904690458990793,0.6472776837299249,0.03185013491069116
-0.062263358427363025,0.24087646191561035,-0.034749517065003885
0.11870536401701598,0.5533173513000871,-0.048365301664335725
-0.191858659073723,0.4610446025473342,-0.10096224184413048
0.11326833078398876,0.9042946172087943,0.027476849176559452
-0.08678282635005716,0.4702939766826151,0.018156645335684993
-0.23328368168928937,0.48586524186299773,0.1470032514354225
0.09656440904673701,0.2923736120908591,0.21377833579554684
-0.04760640299538037,0.6633956844680543,0.14372423538727114
0.043250474233947324,0.26576769550762136,-0.24685752709014666
-0.14763260528601993,0.22362877081318372,0.07403042668887734
0.08388512183197447,0.39283449302192575,-0.1768032791427073
0.04976183694867471,0.5682521161595242,0.10154989780545107
0.24249681782660243,0.28122785794503463,0.06746826502391544
0.0282537390421108,0.6681207422989448,0.12122687913478732
0.03237976739631385,0.5583788844572884,0.3412103218287232
-0.1917141600629703,0.47041495526692245,-0.1774437558333014
0.013928572114017306,0.6089671518304451,-0.027573782619194954
-0.11496510827820565,0.7546734709538621,-0.02493717780949144
-0.18256386013876108,0.45136316433962725,0.07784947675063783
-0.23207006778707998,0.541618846396892,-0.016195138299067637
-0.08898548318714394,0.5458227184246148,0.2600838746928494
0.03538492007300272,0.022402446474332073,-0.01085785269896762
-0.06862522998204834,0.4306357572161833,-0.10808430741598493
-0.0625618394477003,0.44964000128447723,-0.09618543790334771
-0.12300090852750306,0.5551822435917618,-0.09073397224159689
-0.19604205764814714,0.2626213549682052,-0.024173501642178304
0.08619427516283037,0.8552506929260008,0.041747981047396084
0.04489980397955886,0.36422440994882815,0.07618740785707928
0.2359982016827522,0.2752393798694102,0.08194531876740635
0.003682984653034963,0.6336944345854514,0.168015283120899
-0.06263059630279957,0.43002116841630966,0.12098159563508588
0.0048534210894973,0.4718054214019716,-0.16686070166274253
-0.08345662011881369,0.4088963640273538,0.16400123503383585
-0.15496360923858327,0.576081856064819,0.13132703921156172
-0.07903888875366492,0.3394315165032208,-0.16462794404011433
0.08028182514957913,0.24255549115957428,-0.12777008188605676
0.05200080063921418,0.34829110874314306,0.19688696334021333
0.09045808105884566,0.8637645086169037,-0.037628408199107795
-0.21321183324601456,0.5504728611294712,-0.19424870725194
-0.1330260332639557,0.5552776820327024,0.2182853076078147
0.006042275908008836,0.8979927628697795,0.07513947926070058
-0.14008413793642832,0.4938503280924564,-0.20593975961095548
-0.09065146763927841,0.7687674477787023,0.10050770499725392
0.04743731333841168,0.9614756583529867,0.04772221744142828
-0.12209029558538524,0.6525749256490828,0.11627256165691574
-0.19844302014203855,0.5442480178196057,0.13944465578626233
-0.1561318119135747,0.5105977495839611,-0.15266908757302425
-0.07422220786952208,0.3941743252358708,0.1400998826052439
0.04146657401032038,0.2890279003366115,0.22722290189645764
0.07776482301001013,0.6867181431433388,-0.040493545219657215
0.07651859865823649,0.25153060333342403,-0.24749358361282336
-0.007231098789627936,0.360493058048633,0.18985032487027032
-0.1836262218935108,0.5062400221897184,0.20558673167547636
0.16534151915861417,0.2599773238566502,0.19255577891455064
0.0770594765123921,0.6144071552914299,0.03423840104244109
-0.01372750727159314,0.5083131543583987,0.10372318681959121
-0.021361429114160432,0.5363777510182794,-0.08157156156843606
-0.11611028674573041,0.5579859125978275,-0.10696041743179592
0.025980324851068454,0.571745507196183,-0.28316426677976936
-0.03642874216521701,0.6728607432990265,0.11820010534147668
0.024147617824099077,0.24430716564406468,0.10757739607328229
0.09310373276496817,0.5499982289920994,0.09988846200927762
0.08151494908673632,0.8891367757199133,0.06328202961934293
-0.07650947763235878,0.4961128076564973,0.23873933592588215
-0.08295531991682774,0.4057611383215169,0.162190361405938
-0.0855661006241786,0.22669843525461336,-0.09922777143830863
-0.19587277610395945,0.44035985243168807,0.18115444347777485
0.14573896931664068,0.3471096862653428,-0.15160670264766185
-0.16217781778466844,0.3349785670211747,-0.04136178254736523
-0.12003846497316945,0.3465311340325462,-0.11559394140987268
-0.16871803765253265,0.4593325506619424,0.18277827837571137
0.016015161855635892,0.5359583028293055,0.35668537387225124
-0.2024577770261678,0.3816341359133675,0.044402420265312846
-0.11248159898849024,0.25629018794571257,-0.18630887023119932
-0.17602961723317742,0.6453263714794466,0.01770739446821077
-0.11055796988472982,0.5718789548678733,0.06463094777107603
0.050574564289552766,0.030286364525579687,0.02079221210930062
0.1244929727231969,0.25472975683458027,-0.2138305993406206
-0.05411394571088673,0.8839339494736728,0.011074463847152553
-0.23138644824700186,0.5712725163521549,0.013067504661312377
-0.12810515945134315,0.2197195190717535,0.09734681180522942
0.049670296479414976,0.9424706629891454,-0.0646557947480913
0.05055285361013735,0.7594332835081189,-0.027407973624041026
-0.012332855188227328,0.4238258787892072,-0.17780582436071082
-0.10992171466570269,0.25122762877975124,-0.21611714372182445
-0.033165456988347324,0.35893982933426916,-0.1890532152689662
0.18995295060987044,0.40698943641314883,-0.030349118883264463
0.007876219839275028,0.23372072281042836,-0.16192644520443372
-0.17237033918752837,0.5098697849670453,0.23457420017722458
-0.12050743567979252,0.6751440487944923,0.11182998839744077
-0.02872088093363208,0.5173168411885459,0.08593399334214083
0.2290888670167014,0.2269834165799729,0.09675163200150078
-0.1274059687054426,0.7529165954428577,-0.04523309213668101
-0.18387024413087297,0.2897025655547889,0.04838617470983145
0.12132848063074607,0.2616963501366902,-0.2147211441974418
-0.17392159513109057,0.44933252856047584,-0.02886262761466668
0.09949390436187187,0.9576587123163168,0.030164624428160296
0.05579144109069405,0.6033331946443293,-0.0435928783958371
0.08129612855963284,0.0,-0.04051447319371652
-0.09852344979254815,0.7598726362811206,-0.07163563838659961
-0.2161937312446827,0.5177801631186625,-0.19234194490382164
-0.04377379574365051,0.7104423109065127,0.06306382258597004
-0.10926906675527773,0.42517414449696134,-0.18770699111082015
-0.08616704427859888,0.5197626056932856,0.17019755899432656
0.02998243929128129,0.30923565207824744,0.21423790181241878
-0.006592765675562587,0.5607413723351643,0.07336474873001073
0.17756837738093703,0.21955895058009942,-0.003003839175288499
-0.16787857535579695,0.6741330623114811,0.04584422109759917
0.01769611109876596,0.10746803164427718,0.013152219867873148
-0.17334252599868114,0.3980472216617954,0.03036032132074064
0.00875273264219594,0.6311671468184635,0.16674092114793715
-0.15684629752985257,0.5379407492105445,0.0023333431509413374
-0.12607187291202449,0.7292343320115937,-0.07532069993157597
0.21805677308405358,0.3510317200864369,-0.0012939485929573061
0.08066820890834275,0.9724405074765182,-0.034859183772072616
0.11668261628082728,0.45435836464469265,0.14448208298465157
0.004752686182164594,0.654948733243002,0.16438232867258784
-0.21039358051278614,0.39455577875003395,0.06602303526380962
0.008194825460837427,0.2569461660523112,0.04561096772415277
0.19164436411331714,0.21357884732978127,0.10826091045497534
-0.13829715739884813,0.4836831761709211,0.1982957802986657
-0.1721973329626065,0.49205705319307474,0.0034387406859766826
-0.11855740129390455,0.43996051312078244,-0.14857305734306506
-0.04688006763279408,0.8236830484223143,0.06205420549595389
0.1593120684499279,0.28093514919151574,0.1830413835606712
0.06445454119539479,0.33289750814872593,0.042434354698422515
0.029024432596924568,0.7557532292525999,-0.11233940004031566
-0.2098675300352816,0.45945795643011955,0.13572307908207454
-0.03462711446220333,0.6899151178306027,0.09988381566443141
0.2567164965312925,0.25067235704028723,-0.06619732677311785
0.0006786182869278345,0.7638157776543429,-0.04388625509723297
-0.2528769592942152,0.40409508906620795,-0.13418915058972145
-0.1517977301193918,0.2180030778516853,-0.02973785957500677
-0.20370749184179313,0.6103561306337425,-0.11226655731935077
0.06317325649986144,0.6691888123571872,-0.045575846141575366
-0.13405979829444567,0.6276449076270398,0.1927082635661792
-0.14244040463271243,0.2689858439708496,-0.14003225965804225
0.07509108157166741,0.8817366638762217,-0.061615789477531095
-0.013944157612506496,0.3851134619044434,-0.1862614635603398
-0.07453820491031099,0.24511926516790042,-0.22885757781332858
0.03315135699386918,0.39093438373320233,-0.03271510016129921
-0.015260440217309303,0.2423610418489698,0.10113413945253907
-0.06131003408532924,0.6443120666277947,-0.15764118421832016
-0.06647158525714672,0.44273160741147743,-0.09790913467188131
-0.07394165735793845,0.2298824607225961,-0.09879953819153696
-0.24261780105462796,0.5520687998688741,0.08428196518813415
0.2270669371958668,0.23360158539023707,-0.10520641414198792
0.1506465387156708,0.284860761973803,0.18971278010926257
-0.09893566175802397,0.39168299530059425,0.1902455284292845
0.03496084411889368,0.6393714588454646,0.1689448575822598
-0.059464165684593666,0.23737557188716873,-0.2190230403759716
-0.011154772203145967,0.48902787986615875,-0.13862326960739332
0.005649100367596947,0.6959290904956865,-0.0522510046756145
-0.0766304885206288,0.6887120314938606,0.0048289140571450735
-0.013754495304849592,0.8568143892736995,0.07649112676298908
0.17015376338659136,0.21878388377909663,0.020145326711300992
-0.025713725432243185,0.7234888240750553,-0.07679736161031861
-0.11422437005693263,0.5129944681049272,0.268259494677202
0.205738436069627,0.3059851143309608,0.10302204871305118
-0.2180563691803608,0.4284879144244732,0.07450704090739807
-0.1539867646034776,0.6963469506462746,0.040922029995353146
-0.2098855718512421,0.5440173492541269,-0.1745334977732674
-0.17238842199172955,0.48291321219027694,0.11671593074696773
-0.11861305867492902,0.22557055674813647,-0.0039040487177005208
0.2506678323242161,0.2289952887265588,0.03143537512200985
-0.17644559986680794,0.6460197302568051,0.01396917649008734
0.1894356797503854,0.348071921134684,-0.10007273038049222
-0.15824590347266787,0.6846905603069889,-0.020697544540968067
-0.1142850671588142,0.39921051711520966,0.08637857947093483
0.04565035735971778,0.29619074401970485,-0.05983453783662035
-0.13028582512911485,0.5237803026486363,-0.1495563388184957
0.26198502119338746,0.23656481513917413,-0.0409492428931504
0.10798066209346009,0.25976332641615146,0.21944589785724516
-0.05504381067755245,0.581564805226847,0.18463603270670645
0.05739467165266421,0.24500231152777127,0.24282161518759876
-0.06468023748758543,0.8181054900280729,-0.045632685059936895
0.060628399944414005,0.014420656824787619,0.04564850204286867
0.10571444131160654,0.9133080534252133,0.047131858333047574
0.2042942867050238,0.31160476898979184,-0.1051927958211106
0.0076158914631913426,0.9651786282361772,-0.009615523790994542
-0.050707925688809094,0.3361812945855478,0.18184220313723493
0.04641042524164117,0.7291983526110315,0.1093760950216823
0.0550651823049047,0.353168162020193,-0.06533634580294072
-0.09723062353375621,0.5495185864570927,0.11878198399180068
-0.13267329924982482,0.31163131053863435,0.12141570102892077
-0.09608578212282633,0.26679519094454235,0.21829100605767388
0.22287936785260576,0.3202956311528949,-0.07658701782211014
-0.18514065751346748,0.3814402718520054,0.16405969207728233
0.03778155412453716,0.6708775132135535,-0.052060712992907085
0.02541357995694914,0.14116124461376367,0.04114378248282868
-0.11850719800910242,0.4122631225352654,-0.23025685470847992
-0.18408532992892457,0.4518581480866349,-0.10086280606869678
0.011524827284482245,0.6513172774410187,0.14340054330406546
-0.19969557923342013,0.57745077591567,-0.16148362094290009
-0.15031575973725866,0.5537450580791807,0.15731449782818419
-0.10291518620752657,0.6518608055386228,0.02754898556907652
0.262939503257143,0.24981654535176406,-0.03145462152632119
-0.059153807926571524,0.8028298960959066,0.06654885576715432
-0.031432778698890655,0.8467829557866637,0.06536852944572591
0.1329706826740093,0.2436357733275488,0.21556995528569495
0.1358401604331167,0.23193592684950268,-0.11837291057615472
-0.008013905187606122,0.36588696868814513,0.1867006839179349
-0.2019637421314413,0.5092474003225319,-0.03503795005158623
0.06564325333336074,0.7170592260446894,0.048702717504905145
-0.029690290657472404,0.7469093915389508,0.026863287939280736
-0.1625468739276998,0.22463926441528542,0.023804218382688584
-0.21402775957131817,0.4692743194704213,0.001765175590423369
-0.0697846478242412,0.6809036893618854,-0.16106527014104066
-0.07818083300105401,0.4898967101844133,-0.2001136305185165
-0.026536477339520314,0.7801135968162424,-0.11633173995792012
-0.19339770602714673,0.48630635571661945,-0.11557313647164
-0.04517214259964336,0.4894651712231948,0.08797573304162758
-0.12864852385040051,0.47979717709647635,-0.241587695308565
-0.0591065608086565,0.647761621520034,-0.10947450846631443
-0.1713349333241191,0.5178015365171034,0.15730783676400506
0.013577352168380408,0.9662234270897853,0.014790091551822149
-0.0071672367578885475,0.42073385148145626,0.17179906391104874
0.049887830413544165,0.6030099741336808,0.045594343011750936
-0.17326310844202425,0.4276484386026556,-0.10934835357089338
0.09133760806495132,0.9274914680884809,0.04816883094471438
0.014751001042459138,0.23937074243916626,0.24663948005414352
0.053590075261211796,0.3113706018045347,-0.056423601254365
-0.12256604990564812,0.5477747095315411,0.2576907555779048
0.015313442081168227,0.5880185587177975,0.22452366166043905
0.037604391171564784,0.32910560611132733,-0.06863292166980837
0.004158901180512122,0.7695184355649257,0.05855064645380102
0.2570786265880926,0.24986782532128263,-0.0661662774481742
-0.042771657993495624,0.647246957658853,0.12242350683576794
-0.10537997525356466,0.5433069333761611,-0.13583928041658863
-0.016241728343661513,0.3241549134023179,0.19694127430035974
0.07316130024295475,0.8690258364419321,-0.07775737757730425
0.0747472428116091,0.6244645533136474,0.032818814671358595
-0.05610492685163819,0.6594937164445728,-0.10252557834072484
-0.1856245497323236,0.4080117756543379,0.18238097143439158
-0.04759152039560642,0.8155026773773766,0.07088153397795713
0.09225398076717539,0.9729436399429984,0.058569169695645115
-0.025962048821956612,0.7587876947384162,-0.12483773847030011
0.03090844113281882,0.30016799648251885,-0.027998773791859187
-0.13590222377016659,0.5651367589846773,-0.0017096168719826915
-0.10024114686408744,0.600937572934152,0.06525957550566688
-0.07521539227236335,0.7740205641646143,-0.09383113361833313
-0.1740624670545837,0.5216867666970253,0.19958400056511366
0.027748230108177348,0.5712523353895975,0.28115340671925787
-0.20781698164149254,0.42031769245609324,-0.025306298028757352
-0.16186060536334412,0.49106800416275986,0.02060424153600749
0.0671980957948281,0.26076320943610265,0.03172509059119055
0.07655044545974823,0.580542096507433,-0.0715660849895697
0.031041765270072613,0.675044309671865,-0.15200569678385917
0.2122100574473099,0.2151348631484065,-0.08813185115050028
-0.1685481522772843,0.5071593110386444,0.0009019013725360819
0.1209446705787039,0.8807149069140903,0.03594907075459009
-0.01732362658307668,0.5634800824273386,0.052183682060994614
-0.21585328364516987,0.39148973827633027,0.043647879264067706
0.023527896514617546,0.09669726602776751,0.014064025324691925
-0.05107427564196673,0.8408088305517132,0.04180235949320482
0.005948133301850914,0.37710693370245213,-0.19168517615080152
0.12294364288391912,0.3229952455740568,0.18801517117543415
0.07505652131338333,0.2602627017922294,0.027420542213728805
0.07032586376825471,0.7095672637382064,-0.0456016989980988
0.016311100856845007,0.2642480647751717,-0.046000945436488534
-0.12456382601353404,0.22168873504795228,-0.0460209102018592
0.03155625575659399,0.20279609955055905,0.04950488371389922
0.06948243786435802,0.2640066126951834,0.014013762335881419
0.06048196002643562,0.2543613193079798,-0.1008025532186511
-0.09950601278735607,0.7148454979021734,-0.12356207701980908
0.034249832629713685,0.28221874915966083,-0.23760612607316767
-0.16461361898389587,0.4609435716877906,0.20534830231812806
0.06885763671026301,0.40073349298547045,0.19102656209871013
-0.08713888652373827,0.349241100846148,0.1572930752937554
-0.13651892826272188,0.5844942540091804,0.1696083338309236
-0.031678026185533475,0.8239840364040745,-0.08002496849530599
0.04118590212189552,0.24254761944247463,0.24504304333773547
-0.11697091067263435,0.24594077481656168,-0.1989923036638713
-0.02857684469154973,0.281224782393498,-0.22275521687946626
0.08859436015117056,0.22803880246736716,0.18955255487103323
0.024937901890030013,0.08719594856851776,-0.01633948317509562
-0.06918611469232992,0.3667037621261308,-0.1514317667853428
-0.14734758842348972,0.6831478989384097,-0.06841799833594073
0.19355604605847404,0.3220551701672982,-0.1121248062081429
-0.12540184927826104,0.50367182430037,-0.1853451556434026
0.057440307608902764,0.23929782325829732,-0.21928032581265894
0.08579711796427827,0.23665536538179208,-0.20679907395623404
-0.03146012073331707,0.9403274864781255,-0.018437302681119344
-0.00016959989717390406,0.9453859645373737,-0.059681187441593925
-0.05937795650929272,0.6286927567588589,-0.15121853298943222
-0.015452922218990188,0.23929470948080303,0.11267804075039606
0.04222952468110433,0.2694160750724437,-0.057986108788267585
-0.09392273551251436,0.5928580280982406,0.08110392021257082
0.2031263186760849,0.2982409567122889,-0.11553264445428171
-0.19605347383600935,0.4619882847537493,-0.11934334394629931
-0.0042981616090192465,0.8199424342342126,-0.09210813323458449
-0.09438791618534303,0.46249785445863795,0.21489606069099487
-0.10146576714424102,0.4073771882540525,0.09723786195912924
-0.07490712766619514,0.5085553892634186,0.23106819732214567
-0.21395505136253734,0.4132844732768488,-0.03130266461660868
-0.16691048741493936,0.49175570754399417,0.012104559206947722
-0.18472294556545557,0.47383694487289574,0.10593232428063502
-0.01892245533032278,0.22752006267707126,0.19809444735631623
-0.10820978069873727,0.6189120250752033,-0.027465742135729544
0.027069282625059685,0.3419698637935096,-0.2101270412176027
-0.1035014203458556,0.6265864878235077,0.18227207256901637
0.005795942195746152,0.6704974927023984,-0.1567181647557657
-0.013267471196290265,0.8857904502865381,-0.07375162449806912
0.0533454815971379,0.2533276496667916,0.08161968671550508
-0.1046089144995419,0.570248798876148,-0.11173935174190627
0.10555512851456508,0.2471567109733842,-0.08601999474105912
-0.1710210083861503,0.6677877282023826,-0.04059893883738451
0.016558127670352096,0.5427988959565457,-0.35105261114178765
0.05958327327875908,0.5002520122003632,0.15403198428051812
-0.007161380708170548,0.7088023697096114,0.009909286236420074
0.036220720997229394,0.8497033184863239,-0.09182611688368107
0.21119426700179073,0.3712891442469266,0.03719143119728162
0.030473424169331076,0.640040617918176,-0.19162451571361347
0.002339850727743699,0.7056645043971216,0.06526485756121983
-0.12969186460708518,0.4739756232616087,0.2459471584236084
-0.12854957059861,0.44604446958540783,-0.2485492824723403
0.20438541981622294,0.34898239216857363,0.06809083244206386
0.051087656695207304,0.031115890346512902,0.029272367506585767
-0.08553004044732572,0.394788112124283,0.1657268884676375
0.10843117686223777,0.5249477710640261,-0.0979004813250707
-0.03469352177513754,0.7259780638165543,-0.050401822099899976
-0.1982675863069052,0.24821060537398673,0.00207929982743376
-0.009839682497672893,0.7771714407312554,0.011354325218341536
-0.1244641481498811,0.4786850349010482,0.14687145074327937
-0.1483297341181414,0.3474626081870293,0.0658935183215709
0.05233567858561757,0.8513477826286954,-0.08730593360328734
0.08149189897087283,0.650548831130581,0.027808337798325464
-0.07163119264803686,0.5079389746530822,0.22484274080395986
0.07954340131691524,0.35965791213460313,0.18970513039447964
0.03561323295447591,0.1892780317563867,-0.04174003002278408
0.03374431520040466,0.7649174680973421,0.09754050712238119
-0.18279159206381845,0.5367491471522712,0.15586822400492642
-0.2456030184556042,0.5330872903325476,0.020310250622411433
-0.06671130095447783,0.5984606451276834,-0.2016195170582784
-0.24046837829881096,0.538989729752618,-0.11590104282675938
0.04075683390660069,0.00906890446819843,0.015907381008681363
0.2464962558067342,0.22527125526117772,-0.03692801372872277
-0.04499785571635248,0.8974250516394331,-0.034008109531083075
0.0892906372759504,0.6654373272122333,0.01403784979424388
-0.00037614887707047026,0.7629526568221849,0.10554704115581148
-0.09535491354892305,0.3215573213022742,0.16249530489600464
0.03953887952559285,0.38738526418407576,0.02678953915180846
0.03238698669181707,0.1643664264495739,-0.039459060441541384
-0.22867880836650253,0.5040199748577013,0.0033430205091752136
-0.1311659230692245,0.7270340097157195,-0.015520609779300474
0.12152274716401953,0.3434183700557294,-0.17993601125551734
-0.15017372514028943,0.22386841963430873,0.06361611526884113
-0.18790436718682732,0.487114048100051,0.18605753211480425
0.03293320828077459,0.27229622695714584,-0.031839437841204736
-0.06892649915759157,0.6229837519970297,-0.19237148455059258
-0.19580549866209554,0.4925579467501571,-0.12149224003102001
0.1679569597485907,0.32566813682333096,0.14720271773112664
0.010107786019684907,0.18874053539602537,0.043207502059759956
-0.15162824253891816,0.6948530576009255,-0.05633886173964037
-0.048928652746004817,0.9066472375408361,-0.016195839344873727
-0.06558840511874588,0.2750642744481504,-0.21335565724369562
-0.10049278483194074,0.5226643973444111,0.14777824458931732
-0.07548225435197894,0.7898181975868829,-0.06038855162420878
-0.12970062186879328,0.5667333617932564,-0.2515152391659481
-0.14726506593822408,0.21519748533388405,-0.003968828106166847
-0.17752131020221082,0.6267523977024781,-0.03450844210867269
0.1175796281833059,0.24296224158712115,-0.05327641108082574
-0.2046870006628049,0.4144968593989313,-0.12070245353504938
0.04131310690815153,0.7606086914853857,0.039926282153139765
-0.09550297088297295,0.510643722576621,0.24564394146161322
0.029053106545943896,0.5628514474745062,0.2937646636520112
-0.13724654504873696,0.22282067834977448,-0.10630354719366285
-0.22046548263648796,0.4035813030625983,0.011005672639128581
-0.03581125338240948,0.7780698352635874,-0.11546906476554733
-0.20221238442876321,0.47894429453027026,-0.10638470039172147
-0.1911805812839683,0.5855998179512981,-0.1341507800694802
-0.005010289683698967,0.960013036622073,-0.006305642396313619
-0.016293941248646797,0.7389516185422772,-0.11143620825097615
-0.21138057955140413,0.48792991905265937,-0.14857423306887224
0.09958688286431082,0.2338878283488424,0.20431301754617107
0.019238486215854896,0.44679384825968105,0.177428709140437
-0.16475617928037858,0.43551614741140093,-0.11393377612239093
-0.0631341485670362,0.28083267414506546,-0.21176967369975247
-0.05170891991747875,0.6159956533058047,0.17580969743319352
-0.20210720910529228,0.43833343604949576,-0.03802244775232677
0.14548982592126264,0.22863123124922755,-0.13890318071595253
-0.029301521923315976,0.728242364356525,0.06442050413854478
0.004122693684482133,0.4556980525619462,-0.1730836448416034
0.036133,0.6289100563428539,-0.19722165832868088
0.22096667642656875,0.2236519861734153,-0.089585410988147
-0.11189928184452454,0.2891777670799619,-0.16506162647450134
-0.09647419934339926,0.4848649201846181,0.1950430104597733
-0.005328030450961635,0.23577829507805226,-0.21744940421509984
-0.14926593016457446,0.5091515581778849,-0.12136729047518584
0.046654138539853625,0.7139511258305348,-0.09517662275205192
-0.15111295571266842,0.6768440430530646,-0.0710988497964169
-0.12087247874408151,0.23531202602814352,0.17050079368889587
0.1457807417900755,0.39733795686284934,-0.11847952387097918
0.1308514500867238,0.24288307863959022,0.02875089621491196
0.07427208925266111,0.6154822097585607,-0.03491776489922183
0.004830796087451523,0.045652908235906585,0.026809079158771135
0.014414331522123814,0.5478817434078842,-0.34961308222010345
0.10805955211018009,0.5452211892984395,0.08913043815534878
-0.17378524700073833,0.5041962197633792,-0.04605183643866214
-0.05261804474328793,0.6631050857616757,-0.10396611691919141
-0.1516862640461108,0.4148199779042323,0.20643847527670414
-0.09799698213414776,0.6256840182217204,0.1913754557680513
0.04711173303406484,0.37956792247257193,-0.021154496500388906
0.05603019910104801,0.2397407188846307,0.22699099731414263
-0.05870577122394227,0.7696725353820985,-0.1159655099384131
0.12157221841540503,0.428009320270821,0.15337323869949712
-0.14830347190116316,0.5136047494233177,-0.15613067225754917
0.007078127904622095,0.5916278182295763,0.2316244894252143
0.012307131306952455,0.6727777911044714,0.11790121029573843
-0.1440654228626811,0.5525390694540473,-0.012736874261363176
0.13288747886028782,0.22871331686457985,0.18127344512137852
-0.05532339775318109,0.2518112923821048,0.2300894400336402
-0.23814168305331918,0.5652599754174323,-0.1044380060371307
0.032033850320462263,0.6016683704405447,-0.041631135028934285
-0.1826659387497025,0.4605684857859634,-0.02888986418905713
-0.038283295856695744,0.5179690849794358,-0.06407427457266644
-0.03262737862180599,0.8064789806975688,0.08957512143061434
0.015160356800140433,0.4807855704084774,-0.16289167172819374
0.05414170557871759,0.5096477568115674,-0.14274375069717493
0.1023754999967092,0.9658528147692742,0.037759594086840924
-0.12685658646919135,0.3801618193265755,0.08013664583462396
-0.04217634067887152,0.32334599349614335,0.19184892473026346
-0.17398441040164345,0.48912086059480603,0.09748685728731385
0.038027494366960304,0.3330143124998848,0.20301097727179943
-0.07209940746554297,0.6752242309457293,-0.058097463160661354
0.055940921654214805,0.3990999619354348,-0.05477362861817959
0.12469982869065145,0.23753146087621563,0.05260458872550153
-0.043143729537776565,0.7653964639428514,0.1279315478243589
0.07043254453000705,0.6078147758602804,0.03783296486844969
-0.12080665324502664,0.5713755247821899,0.2232113623491375
0.003857050172856766,0.684224440367581,0.14205962421620244
-0.08045605299139463,0.2365180880961128,-0.19806517176718358
0.026724948077052987,0.24982861855750318,-0.021038213848190285
-0.18195138336327335,0.422834171861847,0.0801157042025193
-0.13588902931460015,0.5211472734045401,-0.1058078498972629
0.03497624796498827,0.5946882379049705,-0.2200707335640064
0.0033862339417851384,0.5784381057067547,-0.06627922083423395
-0.1773117780277958,0.49327989368249947,-0.03674849215176955
-0.009010027318277575,0.3841139479995769,-0.18929643948469715
0.0369962636856445,0.1943176195244522,-0.041511331423361074
0.2295403367812207,0.23293320080665544,-0.09443518213304673
-0.23718914589355625,0.5136533763191072,0.11814825612160251
-0.1401654542209732,0.5151329698642431,-0.16686768343578257
-0.06556962860953706,0.49786361150636654,0.04435803661258541
-0.03871921223762125,0.6755061888719719,-0.11447542258012747
-0.055864805653535896,0.26310199785709826,-0.22288752036245604
-0.2162729325036648,0.5386182186873073,-0.18928370522235416
-0.021700606171123172,0.9382924836780816,-0.04552959789645365
-0.08724948266991604,0.5649223878420166,0.12043750297900822
0.053334328680973764,0.33711970515089124,-0.031482530004896474
0.15782087512266882,0.22253612445009865,-0.07562445731261565
-0.006449991597314547,0.9354475315889379,0.05549818570092305
0.07272700487024188,0.5564470727823719,-0.1059572079073773
-0.14200741729167007,0.55686240069285,0.019243288246306195
-0.11620331190146531,0.5622076101157609,-0.09791931440638527
-0.016055966800592285,0.48661658139506425,-0.13569439054972188
0.05425020288222489,0.2694061568775217,0.041939636064735664
-0.1894653158530376,0.6139172628148639,0.08416848854263012
-0.13247457968746704,0.7012730586524929,0.0846469775242772
0.21777898817388783,0.20842763402594994,-0.0500391827837215
0.026611276478582132,0.9132646592025615,0.0787565652943619
-0.009613792346099617,0.23538376341418588,0.21838434611422908
-0.2437529030612221,0.4353842747022411,-0.043192022107006844
-0.10807203573638181,0.7692469307575183,0.007531536758919035
0.027148243060312018,0.015604919616272384,-0.03737463860035395
-0.1412249171649301,0.542971915697224,-0.05754902057640538
-0.014371320539538128,0.7711564990954114,0.01313837972113939
0.23500810325387336,0.31603228375500947,0.021233029946039
0.009890988350851067,0.8339329117926302,-0.08777648864900504
-0.08682951554656586,0.39060271330783164,0.16519202588520504
0.010802941334405292,0.2648038035965494,-0.04424753465113266
-0.0529571680992943,0.603339633748177,0.19149808612473507
0.23448576421088485,0.2937443569154128,-0.07662480156592699
-0.005510299212250535,0.7353495956415638,-0.10598848877271884
-0.03268355234924225,0.23107737981411097,-0.20577722864989384
-0.14282597151184634,0.6477612307465536,-0.16577708602009641
-0.11654184323869776,0.4879190057901374,-0.24455878016561503
-0.13018865662152182,0.27289095809966996,0.14338443903457657
-0.12648783170630165,0.4464549457918976,-0.2498895548915185
0.015918874046460856,0.6050306339382162,-0.24249764056157216
0.23272953248748826,0.3083635942101199,-0.062318465545090365
-0.10527369508322244,0.5952825850098585,0.05952137449538497
-0.08509963896816905,0.5207007103019047,-0.22472414730896123
0.019700706333079895,0.5731554256413649,0.09105436972791424
-0.21792903301057295,0.5260888875173082,-0.04279171110158678
-0.15362257509378716,0.7004056702233901,-0.09538332672429982
0.07303392835293564,0.7969303438691298,0.00767613565059697
-0.009137428463464693,0.3416635330533589,-0.20302733060298808
-0.049589681240230096,0.5293892310855018,-0.03088774051684584
-0.16633609033804195,0.4485216405391163,-0.027251265037108806
0.12379736394817725,0.3165453260960098,-0.1924481972225691
-0.12436096844782463,0.6809273259138836,0.10933415594317297
0.0728540437625991,0.7337442327767837,0.030257521247644192
-0.06123196030752569,0.6473181181740639,-0.15721509555692637
-0.2420914573244603,0.4270485596860666,-0.0017601313955971677
-0.03646573888418156,0.22852627332104014,-0.19850601539278795
0.005963800925819503,0.6148437231213203,-0.22084647103609786
-0.12549315742821754,0.5154068260386382,0.14652189310093383
0.013906475646514536,0.6967359873727098,0.07815795329141143
-0.09589398262655473,0.6408392491277491,-0.03663784896269188
-0.12943189737053562,0.6612387442646077,0.15092521430833092
-0.22636214831215057,0.5651804886365722,0.024104786690648937
0.03649770921622651,0.264318268364781,-0.02323554315079064
0.12487721790832094,0.5625098118408222,0.024754473005478755
0.13729855791708379,0.4949492941129304,0.09650543591342581
0.014148653016629136,0.9601597699905612,-0.04882826354927073
-0.1226702025587135,0.6139369436161601,0.1976012877638037
0.010079104116299704,0.5852160547475396,-0.06089107860782971
-0.0053519291595970605,0.4276929434028458,0.15596759417109063
-0.13699976030799407,0.4069113272614681,0.23325716397360757
0.042397023109806975,0.7693887718783733,-0.01882254049868671
-0.09179682418143627,0.4930705175121924,-0.18633539917292866
0.20830930780212864,0.24023565450560758,0.1661098515625898
-0.13634141151670784,0.6132407073122085,0.19721760818217865
0.19630815225567422,0.24014585755517712,-0.17162637165263428
-0.09882796565042125,0.46838042682360437,-0.21208581896893092
-0.12421421219878377,0.5385939370832391,-0.2671794172973278
-0.24320999936664014,0.4350775258079289,0.06877278807495496
-0.012770583484331358,0.8873114943885702,0.07010184957157581
0.005996492044144817,0.4204957948632956,-0.18585143204565943
-0.11861015316282786,0.3482157134261226,-0.11605974896308047
-0.05452106139397028,0.6657202210410244,0.09105105735597935
-0.034579576132864165,0.9331717301096274,0.017240431998493087
0.05196741329716129,0.38578037414897265,0.20008822599237566
0.01715695530175807,0.6722583646074924,0.15977170331612375
0.0703607116149338,0.8128430817763865,-0.03494177618763458
0.17989010110254372,0.398704950839302,0.07589683493731611
-0.03540240135276754,0.8526375279191971,-0.061599046154291834
0.10886317624684398,0.42098586146952843,0.16410514034336127
0.06115106779546807,0.3787171289942089,-0.19121052762349122
-0.09149933521058529,0.6397831586604633,-0.06069639462534081
-0.24864117703684602,0.5023553162029887,0.08659801520422898
-0.16495766896742875,0.4897166090251841,-0.05495622190971578
-0.10116025837862604,0.43824918953059233,0.15719942500596143
-0.0449377519126306,0.670252191987796,-0.10802617463022729
0.02060545670899587,0.5041118715793973,0.1543960290133291
0.02273918214208807,0.10342725035461961,0.03557504842932933
-0.008122733616532235,0.3806489164415109,-0.1874063526697858
-0.006631092912999178,0.7137540062472043,0.023971053408392375
0.11103930043182313,0.23748419300153864,-0.1304430881407112
0.11452856374718529,0.4010512871345022,0.17186541762815905
0.11230061454783058,0.31463488322488914,0.1967461558084364
0.028879750085446618,0.445042762253765,-0.17819603748354276
0.2302333898007889,0.2821032186202234,-0.09137717172496372
0.05125160691207535,0.3076381920854409,0.030497527086473727
-0.22801509272686796,0.47204334044776797,-0.057459017655907746
-0.22216081028388715,0.5388982541048023,-0.032976316695942656
-0.1409420641908863,0.6387621396127012,0.16660470597703128
0.06884226718104007,0.7454439095693111,-0.012534067902967117
0.24464309093975162,0.28409325230761623,0.062202325195619995
0.015529521969981376,0.8768244140691802,-0.08384639060427561
-0.02143956423000477,0.2701487489123181,-0.22962287960542838
-0.1713452582202144,0.32291454407156855,0.02848842094755423
-0.2569303567985083,0.4639679112383867,0.12966308709582475
-0.17250592854063682,0.24287882833542557,0.07886159540959504
0.1720938493550245,0.21060526930194362,-0.10208911751630224
0.032102918419311115,0.25745965158757417,0.050234679712801635
-0.02218329441420304,0.8817187873428828,-0.06751619030634778
-0.09304365663357568,0.7225735155067448,0.1219592085542068
0.09560648429919773,0.5963276034318579,0.01244728719448887
-0.22846889565232315,0.5916013654179877,-0.09200924119270575
-0.19495528722569486,0.6059300621403072,-0.18154603034867195
-0.1540234147093826,0.6241538122992283,-0.1920962155762869
-0.10869415877891672,0.7465053977349609,0.10216697580261774
0.01829852572648822,0.36799048243031507,-0.05075524555270259
0.10763307686386206,0.5032489001598932,0.12240410080199576
0.0887218514226728,0.6950363039064548,-0.022024190473282388
-0.03288009043204852,0.9117878132186189,0.044411127675231796
0.16780449025657473,0.41865592861819445,-0.08206232959342497
-0.08776612994922625,0.27159038074860853,0.2157073955625129
0.2491184871296182,0.22558217997863841,0.0069967128934746575
-0.16900033432900935,0.2956504991614096,0.0865214231812081
0.10572256076833858,0.8909082171980754,0.03365655546900191
0.010543329139222268,0.8043910008769268,-0.005800996232094249
0.04904780224283619,0.5336116312080231,0.3432689971562374
-0.14231840438156249,0.41903638679894245,0.23190904992617392
0.04398552085192622,0.8682404567101379,0.0702891415641474
0.19725821688118245,0.35686847086852413,-0.08540013045347114
-0.23240133750250236,0.5226872624095351,-0.0058932416916668996
-0.05067603368486507,0.6167602401051169,0.16639271575664738
-0.011124913855615877,0.23807961088969318,-0.22415409468280428
0.0037195901818205986,0.18237021227382585,-0.030881983427306147
0.05091755452363226,0.24606848962229097,0.11995587840244515
0.07194568562321631,0.3799131296311706,0.04746155755421391
0.08020454905522707,0.6152412179878234,-0.03302893890149047
0.015751849677236057,0.341901355064125,0.1939273730878716
-0.14014570320296446,0.5618708125299655,0.18434777885842563
-0.10386376262523815,0.24706352461964112,0.20301045159590747
-0.06515639413182664,0.5683394534516417,-0.15386468729068078
0.059530559669784204,0.3451141869328241,0.1998083121694646
0.07308264852387444,0.25436300790054156,-0.2475229304101999
-0.040817799436511634,0.23572565220400854,0.12679961529943026
0.0668950448931385,0.24953714634234062,0.08741243170287742
0.0380973688432727,0.76524278325257,-0.07527007716688838
0.11161156910579173,0.9888318073906203,0.05401855632339912
-0.18908422594765464,0.2800067507937657,-0.025005208901422084
-0.17898529149062198,0.2719165398389001,0.0918888234263337
-0.06593210480444987,0.589714156440056,-0.17711555864110975
0.08431399065298648,0.3931575778531602,-0.1736030295348019
-0.013014902038421533,0.7547966617383189,-0.04578931198762388
-0.1253814715987318,0.5629404897106463,-0.0670537041067169
-0.14057633650814066,0.24715386661727867,-0.1489856962777672
0.0616188046567073,0.5114395315517491,-0.1401149912601415
-0.13531361123011687,0.6170729520652926,0.1964297193504471
0.08472593571081576,0.8389792734835552,0.039224767154117976
0.17088124670824495,0.2367687117622508,-0.17610181070804004
-0.162213187888578,0.2525305423805062,-0.12228627414363812
0.05521123966274717,0.8135908038651147,0.03537642903659883
0.022907021831963945,0.6470388646570621,0.1898185126652481
0.03608129099838427,0.32237703635259923,-0.0659514544802481
-0.05385915283002993,0.42102656351555545,0.13520859251344555
-0.042051119571134575,0.7169358330331228,-0.05051801991058293
0.04436220281173867,0.8704993784870345,0.06724659626784116
0.037575546855625884,0.36251093707445703,-0.026241045906389038
-0.05029988670225469,0.5224373204891403,-0.03900282019917857
0.15379335440972408,0.375483362507716,0.13122762033928936
-0.031475598440845416,0.7361146150490243,0.04412830492332346
0.21464670823203727,0.348125814488992,-0.057888842384682865
-0.041036011451973685,0.697435654075979,-0.12945925795775615
-0.16531836241371156,0.23237650843031576,-0.025741316420791305
-0.11084458509543581,0.6980498539035077,-0.12569809946265387
-0.09318876675157581,0.22190748716415504,-0.11640314986122496
0.00567099405571805,0.6265098007542831,-0.21022201003256846
-0.18920914721250048,0.38058440832472185,0.16119397359493148
-0.02470947610083983,0.24588360279200475,0.061852176868013656
0.017560721997481953,0.11454280696350362,-0.03946798177789097
0.0867040252439791,0.5948768461873668,0.04225081251542126
0.029637162786200055,0.5608054434021864,0.29647539717167054
-0.1991462574585489,0.25091737046750634,-3.142063918318977e-05
0.18608264175096986,0.2945901011256913,-0.1384439488554066
0.05007485067678181,0.5270752013155667,0.1375697819647144
-0.22810477544481036,0.5524098574768308,0.06583542201837261
0.0749125306934209,0.3826202778838713,0.050332194216458986
0.10642629883251573,0.4491525763523744,-0.14518887785550733
-0.08399545665667338,0.7795168252518138,0.06393355532166065
