x,y,z
-0.05115214086835564,0.191406,0.2060791366347518
-0.09956793885538781,0.6968272915618198,-0.1376829601390967
0.09417070616686733,0.4423172783436147,-0.16437136463907104
0.08930517315022501,0.513026445871657,-0.20798196846429862
-0.04383463407290007,0.4567861665637204,-0.34140807464361383
-0.017586480050469148,0.8161954299760527,0.18268437476241295
0.10630692195217632,0.5714474557517795,0.35517790741925165
-0.061895927586813365,0.7205897541480016,-0.24155640746839752
-0.1289457767727673,0.7689850110055972,-0.10317111107150856
-0.12089768678150693,0.1766717620212756,0.15138218516177332
-0.10089091202207673,0.6425527778801371,0.18661577151417205
-0.06137369229337167,0.6174131883908844,0.2640711034692659
0.13719918013597449,0.044372450900377766,-0.260357531552198
-0.07676392641696095,0.5549748911975644,0.0651862879383477
0.022832821876729706,0.8073162028959002,0.04340982514482531
-0.07436360220928112,0.80642575407437,-0.10275645309587667
-0.08915946914973344,0.3457853251043282,-0.11829318336090258
0.07522793404731264,0.5803536900980473,0.3238674357700709
0.0763397114068368,0.0,0.27861746175800317
0.005522249111726503,0.7568800239881835,0.01282709378427141
-0.06179757264607613,0.33878978060922305,-0.1832805574330438
-0.05655937852680259,0.4132510425216531,-0.10171266195720136
-0.08126300448139816,0.6917113553707096,-0.1420881929790764
-0.07674049764021108,0.8435462127134311,-0.03422225684298468
0.007527322416324186,0.6316202357869586,0.1382988024505848
-0.1250999085417826,0.23752425912794117,0.1500628792223383
-0.04052017522632768,0.6297890900330245,-0.0425480551868026
-0.11175976795907264,0.15315522529570763,0.17822532077214603
-0.10863276936819057,0.03923648100912944,0.11993714511248506
0.005898094109409592,0.20876929765861285,-0.06950639461187891
0.02881805853752707,0.0007980250382874896,0.1961495815997316
0.08372841502790816,0.18740186627945882,0.08787759042066992
-0.024536448940064653,0.026821899078434387,0.2444988007052588
-0.006686282053495907,0.7292068663890724,-0.2515478625388868
-0.0002827904310365864,0.962984583291398,-0.06275207919380917
-0.05300478512326752,0.8145656018822813,0.12554835903879355
-0.04850992617851786,0.4391409040569199,-0.16984436875425235
0.0662797446517909,0.6313980998868516,-0.17383800400893862
0.10037093441477328,0.2821828928919309,-0.13674459236366227
0.054320232955232584,0.4283982014970559,0.02626365659326685
-0.12462475837651903,0.25132912464349405,0.15764455778627987
-0.04785067858797812,0.6996958895633543,0.15670137303309528
0.00323943167855519,0.7912524035333525,0.004688620562399742
-0.12571151643780926,0.8125766906491589,-0.13406219082426718
-0.057531207848982364,0.07051033549334287,-0.14966395860822904
-0.11326764261397555,0.6562050834940553,0.2255928779296341
-0.10996957185536738,0.8001225146405445,-0.0029932303331089514
-0.04395324239431442,0.6170520670738195,-0.12705136791748578
-0.02007426783033844,0.051812035967277556,-0.2520648708157194
-0.03706900946691517,0.4902076386969592,-0.28849963844791354
0.08902736867146176,0.18878522234261302,0.048710142308507204
0.03428260095201454,0.7545945206213399,-0.07919712388480632
-0.008490729999798746,0.9400449257115624,-0.08288565056735059
0.11717804551327084,0.0535492225412353,-0.23821951586237045
-0.013405501587878711,0.00039456908528095254,-0.16503836443884065
-0.03507210009946055,0.014776190646486017,0.24221766084866764
0.03384621571534538,0.48827934862729705,0.3057552499591454
0.11454049612731322,0.21841859533774288,-0.0620191192793135
-0.09256104858490882,0.38898845884797956,-0.044588066566791845
-0.1540821158632384,0.6779018202787198,-0.04810370787122772
-0.07187880591436947,0.19040619746604268,-0.23194737844086524
-0.09639162123497534,0.42376341947865126,-0.02821666130180632
0.03551383742058532,0.6626398865792671,-0.1024997402809028
0.03673004101444969,0.4666168404869348,0.10800406787625753
0.05835926950376859,0.5193279853373488,0.346590948443264
-0.03776980984724431,0.7554588978249315,-0.24368021332100084
0.018046426679339048,0.16170962827845367,-0.23170171352020993
0.024163560126709394,0.25903608044355175,0.15570081505613587
-0.005015669879912031,0.13682553964135022,0.17776677257016452
0.0330720552012295,0.8703088053238296,-0.014977815023868064
0.06604010359932602,0.6073451544702617,-0.145359304164693
0.02866566057962324,0.8611113568211984,0.060075768205873945
-0.11187092441785579,0.17516418999176248,0.12259995189637293
-0.07128097945241114,0.9686749651905301,-0.005362457958277549
-0.07930855372221252,0.3799176850087553,0.1054648166928715
-0.10897784313035154,0.7826327032138909,-0.2601237053283187
-0.02150818697418136,0.7620995837836184,0.19461638360692338
-0.09348384350890981,0.24857178907935795,-0.19311124519720171
-0.12568889110261533,0.032696577466767046,0.15012961496754046
-0.0042054653859229935,0.914199188027215,-0.10485747595381623
0.11781616051375429,0.17718478819006328,-0.11788705352820439
0.09385354815735454,0.4917116438825709,0.35027264072587433
-0.07477673578552368,0.4119469084910328,0.10857524096937657
0.03227329466883516,0.8385964640543802,0.07189849273850168
-0.054179035562161915,0.5034844718412346,0.2611503156250643
-0.0917634333043177,0.15503206156995097,0.2019751296519567
-0.14825695219466375,0.6357131674392098,-0.0404338034582012
0.006120170079486217,0.6585670274662105,0.19402068230368957
0.012872699927691947,0.72707531919704,-0.12993331666099714
0.10215779087149794,0.7689636976749866,0.320586330358041
-0.10229350919187552,0.8090532493483317,-0.07457958296597907
-0.12030622516024485,0.5859431884340388,0.024564710864260444
-0.06817617637971973,0.17325667020393043,0.09566408748895208
-0.015356947117656498,0.4809134246256066,-0.2863017835470778
-0.1178405377482179,0.4856804696227083,0.03585185531716418
-0.017485944981956783,0.10335282841409105,0.144761392854515
0.13967111765129994,0.54270704884709,0.2880707583064838
0.0004296252333586808,0.1916266293802835,0.18769955092708213
-0.10076884708068508,0.4280044280918573,0.011936969527529623
-0.09618189991938869,0.36206209062314215,-0.020804768238959714
-0.08536459366901475,0.9233342873323146,0.034481531832549456
0.0849540995495324,0.4852564086049692,-0.14576290511765677
0.14812535356934567,0.5544710672049146,0.30975733504969793
0.12619540433737364,0.19074999212821006,-0.21873297499406238
-0.07091318682171631,0.19260483752611962,0.07183974578700406
-0.1010403773112573,0.7378908579285252,0.22239415467161025
0.06840347986250342,0.2118620161644942,0.3107501994522137
0.026875607203433856,0.7938063707061267,-0.06994214316959724
-0.10947455579028366,0.45556435704625026,0.016085243175278492
-0.06314782552846898,0.33508749162234563,-0.17382157648753918
0.07516390015878716,0.2890145995280359,0.14300673517095738
0.011048311305904765,0.9498850311844708,-0.02921455682293598
-0.09181207396994337,0.5014601665413441,-0.10642644469901423
-0.0037481827880596237,0.7790420574441044,0.16274348041146824
-0.09159474909007571,0.3870055108651625,-0.058482496843447446
0.0661512638404674,0.6728336070117871,-0.21899978141167006
-0.012969050270106502,0.8303256364317793,-0.12697268048742014
0.07274988415850789,0.23764684769696498,0.2068639512078463
-0.038923736269606615,0.8183825606252192,-0.1168313353356796
-0.1260238946594573,0.7042528098799211,0.073007314670369
0.020900030804954596,0.7129555455423237,-0.21361269492951618
-0.08069408924415154,0.3614820111921853,-0.20250361182585783
-0.08057877201468809,0.08012969974344308,-0.1758538048721898
0.004531514848164138,0.20854219873821198,0.11552047439793475
0.043243561435423995,0.6053016694852873,-0.09009308783228157
0.0798337595416545,0.6861026316151791,0.3118215688693785
-0.132520028173942,0.7351210014301828,0.07944520013255216
-0.12463500926376314,0.7642022821037815,-0.25332957293884073
-0.06927253260104639,0.6579785036617024,0.15054717918971675
-0.09130023610193155,0.2255746744306105,-0.06820306539607549
-0.029220881412011956,0.19865473903898903,-0.2370231422926316
-0.03386448834289589,0.07276982452345514,-0.14796355414414142
0.06387462187333265,0.17934100478762866,0.30616521897241517
0.03031515558028681,0.8957765842898144,-0.11286041476149644
0.0018217139416113262,0.6467103709918409,-0.1698911176286869
0.04394642684906248,0.49159589182227914,0.2995505615336457
0.047600647282351624,0.5653260497349897,-0.07497233389994182
-0.007970222411631978,0.2154666058298028,0.2278102152581275
0.12168208115649584,0.01863534432138348,0.2444705154749266
0.09887365944466392,0.24487403983855682,0.021370882627843008
-0.047412728642558355,0.0930168206364349,0.12083087431963746
-0.07425201943807827,0.7606717735907722,-0.11761899448644622
-0.10970521864101213,0.602286869091869,-0.09993030423759076
-0.015621976340143506,0.7902742766173572,0.13112946607120934
-0.00565787848167662,0.719118312760337,0.07624254429042526
0.028161750496997602,0.5289457747519065,-0.3343853743491148
0.048204253081291656,0.6364507129399167,-0.15610825828911595
-0.12061675349459,0.1728547747811479,0.15100680993499443
-0.1390476465658698,0.7623778850285096,-0.03937211403269886
0.04104511652626329,0.5105731208764497,0.027019750597677528
-0.05972825781904936,0.7771924949205089,0.06610854161428349
-0.06710493207556893,0.8123684596125839,0.07090836602367698
0.08509205338769874,0.6166681211319435,0.30606107573880753
-0.06540745434609876,0.3413430400875161,-0.13868217028709762
0.0014303098573739473,0.725977127128347,0.07755440858032212
-0.06900588547822555,0.9906499120661423,-0.024776831956614183
-0.07404403575222489,0.5466782449814355,0.24163894422217952
-0.10082092254795232,0.3368345016217602,0.006567273150061975
0.15476273793817713,0.03614976434552377,-0.23725833562848592
0.10569474217536247,0.4038433377561582,-0.2045618251219729
-0.042580914253842445,0.19042833379026652,-0.003426154198329756
-0.015973498265408424,0.6833782313117998,-0.2517284303741759
-0.03336880462326106,0.8011935053568182,-0.020319718561225778
0.011545851212531464,0.7103486686603968,-0.23620008234141315
0.021778897890432275,0.6954859964418323,-0.03813973734601503
-0.05366055318460479,0.45348409013190016,-0.05984127506016278
-0.06155313019973659,0.34707704892075264,-0.1731801709608212
0.033144518182380914,0.8747224426471583,-0.02746175433230874
0.0705397502133476,0.3000068516946518,0.30677735140110657
-0.06877367666639835,0.2826795143797461,-0.20402542698180368
-0.026787985493238513,0.8087975741760626,-0.11272174357750239
-0.05072116258234237,0.7287916644986022,0.1754869212630405
0.07680777375479927,0.36732299713049643,-0.3580725274518881
-0.03131268337447517,0.6202531319507348,-0.25171615655623925
0.03143322930299503,0.6214121523402931,0.0873304160740264
-0.08571335985351719,0.8454462478124464,0.03507926668332643
-0.12793,0.7531952783137004,-0.23597167205984862
-0.08404591206496335,0.810719015598951,-0.26065134888682756
-0.09406595187524029,0.8067116666905492,0.028993539622859416
-0.05179206605936106,0.5954681426111167,-0.14129855249143863
-0.133187470483573,0.8276760417727407,0.18335433119754682
0.03335347823270278,0.8176984167930742,-0.22025757440788085
0.11420688289719748,0.2508410259410303,-0.19933592467364242
0.0027106228639517463,0.7464078801096028,0.045253818359724696
0.060292170226899824,0.0,0.20599821967375498
-0.06395246838035841,0.5684183671935978,-0.33185800927533643
-0.016387273142733524,0.046141983156656186,0.1286621940148993
-0.1277991491489622,0.7478700034909076,-0.24595160292765247
-0.09436910722249867,0.4437238369782583,0.09982646767908561
-0.08696131948329146,0.17210857557140583,-0.21195967413638064
0.0829635782512857,0.38209315521131126,-0.01668526287360378
-0.009342261976893241,0.5320465164655344,-0.28461018420173284
0.13024394177006937,0.22050170516647039,-0.1774149602012428
-0.08104240905941917,0.6348042075345784,0.1242035488309695
-0.1124289231455767,0.6174871575308346,0.26227191932358873
0.057377652077145735,0.622832785779453,-0.09945294593360213
-0.053854879218248185,0.037460544188732986,-0.2468226838805753
-0.07895854769381648,0.0,0.10773369798727365
0.0580172842885208,0.6701734522705497,-0.15746905962452323
-0.08618725980221362,0.14180967367649439,-0.2096688176998565
0.07391971342556576,0.29125222072944,0.03791311957513749
-0.11431590917060407,0.2334262719845239,0.021445765146052953
0.10716145041441032,0.020587200049433315,-0.16980434940646869
-0.10898502174785832,0.7928030877483174,-0.07898156449333806
0.03989250117297712,0.03176362027636924,-0.1611931768062423
-0.02885845817153212,0.0009657878209427347,-0.19736680060794443
-0.04024405586311694,0.16132647686833196,-0.13169868086850717
0.11919913415138844,0.3237799040178497,-0.21275439736816512
0.08619638548238341,0.6797865454023826,0.30764080683516626
-0.0682960264290173,0.6233188697364407,-0.30890410271599544
-0.04278419768171231,0.5838915256802706,-0.13659769465355115
0.11116276272158183,0.18116012031523082,0.008438067121901427
0.025251645701435337,0.8190963475817162,-0.08463214528891272
-0.06754976337819324,0.37883467869368354,-0.21677499746473516
0.060017037175442114,0.03321413327313542,0.31090866696258906
-0.0437657947893547,0.4566899223497473,-0.3411558126231496
-0.0012315904317046142,0.4817441287212022,-0.37187559644369994
-0.07888542278637942,0.7431984708906301,0.22502745753116765
-0.08806829948746267,0.2358680801648562,0.18303190339770814
0.11473831488473842,0.3293587366366364,-0.18683759817965537
-0.04029532145592328,0.8104470796136444,-0.15458160191483722
0.06671861402037293,0.39287765112900075,-0.29720907091038645
-0.0743825819248651,0.6126295379815234,-0.2709350261786783
-0.0972023597587135,0.2130894103220652,-0.2092810736421204
0.06599950711120876,0.5775795597127247,0.3360262524818233
-0.15041943018999784,0.6800380914812243,0.1087446316525831
0.0009510751302415597,0.155963500974121,-0.14228622100151747
-0.07850953829793374,0.06832295646313093,0.10976293534016769
-0.13322446452323353,0.7694698678974081,-0.09446916857360516
0.02656409303054815,0.005083216335626424,-0.2788436634040696
-0.10652723833959128,0.6498484337987521,0.08596563456613722
0.0709496559357499,0.6165532602677585,-0.19095426719451092
-0.03846394049844047,0.44806845585908933,-0.33152986598179524
0.06760934595913604,0.4396401249723364,-0.07857157682716748
0.04633606783212853,0.6720256301501936,-0.1815566609985917
0.10756587346157691,0.2047584001696532,-0.10318082818898475
-0.006406056168488949,0.8248824761253678,-0.22018178155831067
-0.020789086861278668,0.07074325923738733,-0.24811300790444749
-0.049445067135161204,0.6543018216768148,0.2001775855403808
-0.13871786419556362,0.5763946196947444,-0.03614189386223844
0.05608192966058391,0.6476511509319702,-0.11767843906865619
-0.08155163605739942,0.38970448765317356,0.1470137771498634
0.03981984566110443,0.3868245251140878,0.1745852601403899
-0.08492802125998625,0.06193458069341379,-0.20990180530258135
0.03972613837144064,0.7738453640458801,-0.13883311744004057
-0.06705501446905651,0.41637316277807096,0.02664396662974025
-0.02185090365173325,0.8160557274345086,0.15334785551543637
-0.05917145711122835,0.7638018779729723,0.18681289970735174
0.047567774356242945,0.5472890188987803,0.054759420424908445
0.0347316895956437,0.6186485304569158,-0.04748980318553686
0.029808869368823668,0.7966156589141935,-0.0937630815452496
-0.022725529870759653,0.0,0.22234015835555496
-0.014715212623497271,0.0005645747401053513,0.2495545702219158
-0.029657263812336188,0.06322020800448423,0.20926505687160937
-0.08807526615797227,0.6308970954093636,-0.14476379089454344
-0.0082316763730118,0.13406808693599878,-0.2393080936864133
0.02790278027596305,0.0006766803502478388,0.2501863845445011
0.03711002864667652,0.7843615801246601,-0.13190062757861643
-0.028683460046791412,0.8781456506745473,0.06824376292160533
-0.07807523094143057,0.6418835059688446,-0.14868404751799413
-0.08307136643685786,0.6856616310337973,-0.25750138885314433
0.0908837584115473,0.8999860105546139,0.35339241698279866
-0.10100948756397989,0.6091167634505934,0.2751787067190543
-0.004047711907851007,0.14633349826042616,0.18858934660420495
0.06551350652257373,0.4873343453038267,-0.1155402563805516
-0.04949026572390964,0.6981325013797214,0.1540500155054017
0.09558936746615834,0.29768506947745554,-0.013718735738637383
0.09700011742587569,0.27717587053201076,-0.0010658893776734346
0.0879647925713954,0.22348111877988464,0.12371894096121303
-0.004302808422574897,0.719614030505005,0.12540774097242244
-0.05111651522802106,0.4559924541280105,-0.08460141192157497
-0.019761978563084343,0.7736799757804048,-0.1160040732001057
-0.04847172817750249,0.5287887609638579,-0.36430782529534317
0.05415224553270532,0.4474438094464353,0.006835972992402184
-0.01677534804029973,0.7891837410444102,-0.12108267643176579
-0.0840537635700252,0.3396991840273505,0.079528300824427
0.09492672985455175,0.47520799167646754,-0.23130966052780058
0.13376188325883717,0.0223042342812459,-0.18605831095506656
-0.09152064186072328,0.3017679799316773,0.09117554794424322
0.018199446333770408,0.7249612609060434,-0.15638283579261042
-0.0921029469591333,0.2365201061913344,-0.22949398099194981
-0.020841305390497028,0.0013620463612040224,0.25026688152206256
0.12061527644229979,0.213753367848875,-0.20391411464854203
0.07570267450206597,0.48268710409371596,0.310004772331699
-0.086276341416728,0.5126676804715047,-0.09821339539541729
0.011719656662583254,0.12006451389802372,-0.1664290395589607
0.0690310615539784,0.38630849011941304,-0.030804387165180802
0.06399725453252185,0.43157462780839967,0.06581876993860783
-0.039828048191708904,0.7349624185878537,0.18762865680035065
0.03943668373086939,0.5810108660626967,-0.03999610357775091
0.016785335669014665,0.9241274643262807,-0.013861339913958434
0.050802641814664734,0.4190121434730628,0.05768087616351816
0.0256140984154005,0.6645370183837281,-0.031729939388419504
0.03881925318883748,0.7929614883471316,-0.02210496458066836
-0.018281524384374956,0.6246132930511525,-0.032872783470206376
0.012147823665850729,4.5545094480369626e-05,-0.15635070982794946
0.00415626251553957,0.7922383048919279,-0.016700483101783153
0.07271347514188017,0.6173652507364377,-0.20455848920110203
-0.09518625624465372,0.16781183035701966,0.2019807141390763
-0.07795395224245505,0.8244749308526592,-0.10404918919018658
-0.09635033799619062,0.6043013915321988,-0.12418626342343153
0.08768031493459424,0.44457671489449246,-0.12014780460015582
-0.12258673003845758,0.7320225038314738,-0.12925359019520222
0.04076840006169932,0.6177034192837619,0.025423297292006763
0.03244457672913051,0.5650264101916276,0.142158317386125
-0.049361313448303676,0.6797886161221963,0.1812444446387149
0.0040947847667385535,0.8197825946163392,-0.22553612304592255
0.0225164777846421,0.6347154527164075,0.13573416369275837
-0.07235959725491806,0.6003595498668249,-0.31057707849558186
0.08411051930802416,0.72718394206151,0.3106860035631284
0.05521756506483183,0.2890516733459472,0.17067106118766606
0.04895279502863688,0.5369745185426238,0.05630689313744039
-0.10429537496965254,0.7518788690761165,0.20746913745031012
0.07685812815490158,0.35172845577416734,0.061052816506578705
0.00839520134957345,0.05315791010235899,-0.2599252631905536
0.08493441562440193,0.4143919999040775,-0.17208633934746323
-0.034703175848650424,0.43193742859854656,-0.33778817424481156
0.1294722825530988,0.21507852187976673,-0.16582634567033494
0.12304631917551301,0.2085495302834246,-0.21523951512790054
-0.10204152709651627,0.6216344815761777,0.19920446342589626
0.09548782362104055,0.4782177695916697,-0.23124231011775395
-0.009167820987689406,0.8115090877579267,-0.10244922729693082
0.011581664985290153,0.02390291799509314,0.1370359577935982
0.09557753761543779,7.691330441425963e-05,-0.16629836571236412
-0.09456836661009473,0.5750957022542018,0.2247923031192596
0.048604469043549,0.04312573661383105,0.25682695660814575
-0.0069047338858066395,0.806376622953684,0.03292956329318483
-0.05652523129253574,0.5280800273755166,-0.32017621866681645
-0.03758740950965044,0.0,0.23242263684003348
-0.15615227171718565,0.6844990995418228,0.1348871929231771
-0.01421266571157423,0.026266402105733038,-0.26001669989084353
0.005691393709109658,0.34780731386482594,-0.3770154480075187
-0.07416012729285246,0.6037570930356232,-0.27937184263593884
-0.11434357548820391,0.3376315836284922,0.16470955967604267
-0.04259281765806672,0.7886573826927453,-0.032044164851605925
-0.0626218814719729,0.2071569705495678,-0.22321990803420644
-0.1223622865724133,0.6072737913466943,0.03420610244668178
0.08379422945970566,0.3007791804430072,0.06777538374345918
0.08670611372711227,0.5254005460198989,0.29898389703005473
-0.04578986229652908,0.9118297282432567,-0.10908135453183301
0.08971841171773547,0.17907806223596362,0.05423777483753034
0.033993566003242416,0.5045021830726868,0.08573848047318536
0.032196243632329286,0.7222396905117044,-0.028887362952693507
0.0396454120808553,0.5141727885087548,0.33585629609135875
-0.1096826000122165,0.6330770435810366,0.1191640195306242
0.07071338060444089,0.523851696698231,-0.08614486173333963
0.05215933164877817,0.49261462539670037,0.08240037802670157
-0.07767813218674796,0.11965573977838213,0.20183666671385447
-0.10492835859320013,0.2309750113451259,-0.09098540966719657
0.08845627871860706,0.8921426956421126,0.33828554929160515
-0.09611739081790413,0.25431193335056207,-0.15635839749251923
0.06653866939425646,0.29012080586175415,0.30575003116510613
-0.06941084740832884,0.7210320700976602,0.1865322896716913
-0.12818872621560448,0.7323265423612111,-0.2221509467470777
-0.0543595886088473,0.4323016194167116,-0.09009063340578416
-0.1527302438869517,0.6890758087140739,0.17755108971348219
-0.017352186832972204,0.1654443294386106,0.20749182184552217
0.08856876386941114,0.36461597789217026,-0.0376085023097861
0.03745493316103386,0.8634795780453498,-0.05533049197557116
0.07047024105080019,0.35426635601039036,-0.006185123184461738
0.0771102429869024,0.6794338948960701,0.3132648765384381
-0.0599712513311219,0.43292815143687224,-0.023371670208869627
-0.08016038207869083,0.3465646890224235,-0.22141930700704138
0.05831855437602762,0.5863090344479591,-0.17241202548236484
0.10952615435287325,0.7712962361037855,0.32876241929238986
0.035594491767931044,0.1695065258435047,-0.20467452443162654
-0.073397955816726,0.8424402898996044,-0.03493946170348729
0.06926078431842916,0.5019002701396114,-0.051269226980184934
0.0810828615428142,0.17978234342172458,0.1459459076750328
0.03504883242355819,0.6075351599892176,0.07702722709452808
-0.007621880364021529,0.08161492487025815,0.15796922560501853
0.07539622014024855,0.5941385362039564,0.31117700144846605
0.05430351795604976,0.23783132461101475,0.3178298608299965
-0.031528582642214184,0.496707934068053,-0.28201625292002985
0.12076572219140058,0.3162426006648903,-0.21565181332053676
0.10378803443195546,0.21625757954923808,0.01781185028581775
0.035098840526986544,0.46780691961699017,0.11868256028365395
0.03647896034960173,0.6331315445282654,0.03878442230873838
-0.05263329368226758,0.907817392286061,-0.11284810733236278
-0.1120935842666417,0.6688036173870301,0.21807982865443593
0.041555836179527614,0.0558902487996777,0.2027246538762846
-0.07653849281620079,0.8452610324258262,-0.07723219286430112
0.07126633512512198,0.2917258205560258,0.16815370292324988
0.0429142453102924,0.4509807612927316,0.19350906807148954
-0.02719873033587623,0.823207734478458,0.15226785970930917
-0.1486237397675141,0.7627454784608486,0.098630854218063
-0.1277726440415251,0.7995299478412607,-0.14967973940548068
-0.008543503212980058,0.3970182561726962,-0.3715619860289606
-0.0944033223511665,0.7032722245271774,-0.2609469602577528
0.02907498150339748,0.8751180320222844,0.009218217062314814
-0.1256082340409362,0.6681797997276988,-0.17440538890669138
-0.11871062197915502,0.13797441104673158,0.15017318900698326
0.06888720807757374,0.5465763381234545,-0.20314244533976403
-0.025617984514000602,0.6337933841522497,0.08435852998754637
0.05793229573404441,0.003405321669531618,-0.29259207681751037
-0.04864268037817123,0.19065983196024286,0.006467762083605527
0.0728200159334206,0.47196772967354944,-0.04360619211728958
0.0070834046045436146,0.7725451107162299,-0.030682610839457728
0.05112003835047496,0.5326767658725511,-0.06420347689368144
0.008812268459806897,0.6904096534317845,0.17138303355964749
-0.11130079367535073,0.7983303370627974,-0.2648396148397075
-0.11843948699577618,0.780083158957212,0.02112041000148653
-0.0992931386669291,0.3924525461462878,0.040306549809365017
-0.046272992359182974,0.6889765039990108,0.1690558810006373
-0.12369882171813326,0.2664491902667893,0.16692617544001728
-0.06734246125518978,0.2756971206278353,-0.23521517998563296
-0.06298630295356106,0.8116480479347754,0.10349424767542778
-0.09066064155632882,0.22054977941919823,-0.0891624463207207
-0.006806403017292906,0.7071134004308662,0.1593219799453095
-0.017809099439927097,0.6785628394443889,-0.2320777309176961
-0.04795053297035239,0.6615375352587869,0.15889142789151442
-0.14888153695347392,0.6421206614507105,-0.001183567443765507
-0.06630801460125904,0.3853637860295355,-0.03293314174775777
-0.1204736941642831,0.2440971721954982,0.10477890520303523
0.10197685062624287,0.33701649966756,-0.10346101972869642
-0.11557927150879364,0.6538123468868614,-0.21127796599801155
-0.06288153694532136,0.4387289249291896,0.020088183627121725
-0.1375408478058044,0.6031843719814749,-0.0013377037148961275
0.07329901667980046,0.4393000833077992,-0.010720591548634223
-0.05594323206473849,0.5217804780500985,-0.3331571304692765
-0.10837579217061201,0.12049571683672404,0.1279522507033939
0.015988061217945722,0.7257752959086133,-0.23481403779393895
-0.07624899679484876,0.828857111336318,-0.10934236577889056
-0.008050344069246672,0.6567499474508848,-0.07042774586276522
-0.016301245494702684,0.001071908018341211,-0.20558481769728768
0.04756365063579895,0.5282826405020632,0.27456804231714155
-0.046121652104736253,0.045556051139390506,0.22683421144231358
-0.10259976434265958,0.31663492827873385,0.003955010949239113
0.044558049552528754,0.002354834792215552,0.1443356899368003
-0.10631315280308791,0.24873543310601243,-0.04825569203983021
0.04239357204979763,0.6397372054350817,-0.010282303145968563
-0.045809168842878216,0.5826692187324012,-0.0997654531361431
-0.046080409659830346,0.5192811899129928,-0.09411644866120289
-0.022319996443470075,0.18498127176854792,-0.24985241779680917
-0.07227271333636522,0.6371682405070104,0.09911511347274524
0.07875335449557219,0.45700940026997905,-0.06969403446843392
-0.07464606070614876,0.6420876833512845,-0.15538652355922405
0.06968891913975657,0.04391630851447785,-0.1740356407805317
0.004552636862270171,0.8213290078687039,-0.24414680691277824
0.054765786985035286,0.012989481437521471,0.3049610249147383
0.012945471345912469,0.7468937142021815,-0.07920413128214131
-0.022388398770295883,0.0785782207163878,0.20147132739925416
0.03437753819066173,0.7715101441015075,-0.09846097309603374
-0.0028199294582926943,0.6595141615887951,-0.1279194044417714
0.10623823506584043,0.01783555948714743,0.18263839493801348
0.0020127176022831372,0.6920013173779735,0.11130387730493917
0.011600072845866116,0.644972394024364,0.09336182961689199
0.03237619875557487,0.544015742386699,0.05340979865086956
0.04577533107687155,0.06724473729796003,-0.21937445186186344
-0.11852559196055895,0.6670640162308192,-0.15309072116873032
-0.08119750280376717,0.07487456474848785,-0.21109437548284415
0.042838168430528824,0.36621272191179577,-0.2733026191040139
-0.07870116828330878,0.34733497706879785,0.03250750316039744
-0.0914024690795576,0.6222628068641256,0.19534469688898917
-0.04525454051477868,0.6105123955793688,-0.10947815153460706
0.05517495944509161,0.27758413906399393,0.20422510242976186
0.052990358049324615,0.564402605417557,-0.0023793005917009113
0.10902336703670454,0.30893255083207055,-0.12296567159490822
0.0052133551279432075,0.05404597420278515,0.22841903527853036
-0.10325932132282448,0.7532091707895684,-0.13839593661194385
0.11508487581131815,0.5479270254063475,0.31923466813473017
-0.045821050257939026,0.5345245375431505,-0.0995754802424288
-0.045769881058525405,0.623867099449818,-0.10720809028072219
0.015153654111365086,0.20978288664059438,0.18597619822934475
0.0725215682022163,0.3511140335915267,-0.3173152425961503
0.0165608737456266,0.5656625090547518,0.1456263959247704
0.16162775883953537,0.002942644345440337,-0.25422088956250777
-0.05072205377088757,0.12733037609482845,0.10723474296252769
-0.004306590890442406,0.7064886873298375,0.023069946731643844
-0.07914404774454678,0.7264880400626571,-0.22891733622058194
-0.07736554712505431,0.41476697103525595,0.14404705479480454
0.06979906593832923,0.30622914377877675,0.05045127117929793
-0.004760824844467489,0.6701076595207199,-0.07402498551562024
0.07231077847600158,0.2795770527127277,0.061761129227876854
0.04193499775272244,0.6683005261490043,-0.03843634521812356
0.053683798829793586,0.7559423757445807,-0.2216612096440893
-0.091911128058301,0.18827646413668142,-0.1829772737278339
-0.009342696386606378,0.045439089391379264,0.2438725251352369
0.022378348160467257,0.49732893515955373,0.1792944997098978
-0.09392404726335017,0.4231481974250217,-0.05573901433910705
-0.11855288880306743,0.6512818042363588,0.13910481804182068
-0.10643870600798301,0.6402004414303912,-0.11960362370567887
-0.10767860563479349,0.5663530897533551,-0.08453719297534776
0.011303391314378894,0.9511686257826943,-0.07229024809809467
0.11922780227923203,0.5013189198866077,0.34274028111314997
0.058410357983264036,0.44774455469737967,0.0875353280061733
-0.02546342798118184,0.9969839838748388,-0.035129364310578594
0.05048400798583329,0.0,0.23304588814159188
0.12609635369334438,0.0026144180410556097,-0.29082653195593794
0.02293692950113259,0.7548599022580382,0.0007055301424490068
-0.07586670716050704,0.2380489120681213,0.19462339180168195
-0.001754489474800398,0.020846664340262458,0.2656200800789434
0.06809178218892456,0.5338499897649159,0.31348133914133786
0.08674537347057033,0.8184623992007569,0.31100215204619597
0.006960232102886894,0.19283613747233488,-0.23682656954126058
0.061074668160882736,0.43622149234777463,-0.029302215951882288
-0.0891845279474586,0.6871267105160328,-0.242491836545779
-0.07046747322315283,0.3206463917748671,-0.11381557243310561
-0.0378018144079912,0.7833556345732349,-0.25619556770486457
-0.006639533683877233,0.8116575434303396,0.1503127774863912
-0.01927876804721792,0.14526578614398625,0.11831842424633106
0.03657158020248019,0.5955714396633698,0.07941394650051672
0.03042244285436474,0.06610794686617935,-0.19967918493314368
-0.10398609715773871,0.7523502261713929,0.20685171617290415
0.06278194198438516,0.35733266265651464,0.15601198709097866
0.09236198800331613,0.765625,0.3023565418156491
-0.08991184847721961,0.2081558671544294,-0.1198242788972152
-0.03840718913713452,0.627120062233152,0.05017067944120233
0.08557629087130465,0.1966833891433717,0.1744302646069575
0.02930090833349419,0.4616617162019161,0.16825379356034953
0.10331814247676388,0.8313859625578399,0.27027937726566026
0.013675202599132838,0.7465696433105647,-0.0356616668314681
-0.08701748152845856,0.3538847253746105,0.14671031575556112
-0.09262608673211335,0.20862080387538257,-0.09510664901794885
-0.06207607089032349,0.41621616968008046,-0.031784031269037616
0.10589057702788005,0.25717822453103756,-0.14819339412872934
0.06555107327354583,0.5929969824562963,-0.23008402654554627
0.08572717872341916,0.4419131035054239,-0.10312085114539563
0.06862196785916012,0.23939944379704503,0.1309413312693823
0.002860421579018484,0.36032179449459933,-0.3793579982800308
-0.014500662047377403,0.332738615276282,-0.3469120820733607
0.11138389812785868,0.2427130314125585,-0.06631045311270678
0.08662597026019803,0.7279286484226587,0.3289920125346895
-0.011286853151002987,0.8095462224705718,-0.08159051219611249
0.1454254750118328,0.017907868127525116,-0.2805542859050075
0.16005720870760787,0.001953,-0.2539756176669325
0.04156096423324866,0.4731455040713451,0.06512380858929781
0.0838114957712854,0.04005878815650507,0.19275714054597806
-0.023980335473244192,0.2685241162095422,-0.20615922858756397
-0.03284080190499051,0.7511641640248543,-0.2624873955883586
-0.00883540904132065,0.8019624808003744,0.01267323877740062
0.09740601035905186,0.2246273028548339,-0.0538171229419355
-0.10742674166388111,0.21579916611515723,-0.08320797900011334
0.08643444466539006,0.35771182602848295,-0.01456029584606558
-0.11340576256820804,0.6899841169567501,0.19984017980892568
0.02009957960395465,0.21991011793588028,-0.02050296080066452
-0.091232781803404,0.45506415123340543,0.0810861959192077
-0.04370137462265074,0.22024531811745704,0.07819792161637801
0.045729446064410054,0.6350832205263764,-0.13737028354726605
-0.002238200680213267,0.6870433686467726,-0.05803032533606527
-0.023167936600432835,0.0007890405883673754,-0.18807849571919152
0.1225140432779996,0.2811006403202414,-0.18915438278171337
-0.11844848371807157,0.2136972537252237,0.07590664841473573
0.02213253286565024,0.0008114835963059391,0.26611935478306303
-0.0685324667277096,0.01772020978263465,0.09766293924073358
-0.06494259156128479,0.04016984332422098,-0.23992413579175156
-0.07420209698123499,0.2067468950165536,0.12837656601872613
-0.06270959048060419,0.4056878962244247,-0.20177015848420374
0.07821904282509023,0.6013539064025248,-0.22639477396298469
0.057866260879916795,0.5592405811240635,-0.03116969359562971
-0.11354540276994887,0.583725134193674,0.22919978532348742
-0.11324139979413551,0.27658278825246724,0.0637185779055294
0.08692934119569143,0.4062495775650351,-0.17719203218348473
-0.13155726035679347,0.7963303280521474,0.1974280878069819
-0.06768907333970597,0.17821814181368215,-0.13938470803938816
0.08390937764232947,0.4653655012512296,0.31552519195360806
-0.07401713832717541,0.5890695864636416,-0.323302587602399
-0.047479483506985734,0.5128997221725373,-0.07680323153726518
0.10377071922433755,0.332281481946763,-0.11111192271976009
0.10552025629239296,0.8283797385402206,0.26385946874598537
-0.06444272729654371,0.950223243572533,-0.07759100569558866
-0.012367743584388805,0.22201537113560144,-0.17569143474861293
-0.06177309617581104,0.3927950860066282,-0.07313979185542682
-0.08694041905865012,0.770155029687033,-0.10777664227819164
0.09265818352886361,0.3113857860608033,-0.007850308720670857
-0.05617059042664198,0.5464874439717069,0.02939318221779772
-0.0807918706853772,0.0779759721382384,-0.17379807770728056
-0.11439636436747386,0.6616247026098528,-0.22147249540077735
-0.13507220470257153,0.731153681871075,0.060037305836750196
-0.025933092562555323,0.5787505740786725,-0.27585457756818027
-0.08456906953875201,0.25845774221772444,-0.0765129921458857
0.04493938928732595,0.8178641525696468,-0.11603755237338294
0.04426132888530512,0.3828332761504036,0.14635016587788116
-0.15990731838782724,0.7366657545545143,0.1615665880094026
0.0002106396493058004,0.12807613336875773,-0.2356716847306141
0.04932572241703834,0.4165364967409536,0.07132735495670661
0.06751665742854293,0.018376950593604384,0.15248655846417103
0.026733227406662757,0.780772190256179,-0.05460924468659939
-0.0673599969709612,0.6911661728313196,-0.27374055552460846
-0.0278244589908856,0.5030109537599479,0.24894539774653376
0.1355260570104584,0.5251155766497353,0.29018968058621375
-0.00221565097312916,0.6716374118084484,-0.10148355856644763
-0.01589046987415839,0.8092651405191059,-0.15939328370431552
-0.012974716001915645,0.6983109432962862,-0.2559942974309492
-0.1586359334578767,0.8310646236414199,0.16245818229762887
-0.11872872037146225,0.6314251498320196,0.06094317577063669
0.0552577413227875,0.04278403533615192,0.2590486185889423
-0.09545120339300303,0.26576592363098933,0.06267826717782088
-0.082482072677476,0.8686604099711862,-0.0967518935274699
0.028183143625956628,0.6402436985506446,0.08960422895356861
-0.14056888062795508,0.6938001078368738,-0.10300544289353504
0.05927891436494409,0.5395838822397455,-0.01954906031545245
0.07222799203193489,0.6034235385449052,-0.18555580135030286
0.08674680004787652,0.33065989050711175,0.01327918411499271
-0.10859325035793299,0.14051913869170674,0.1812131944450644
-0.10122361895025109,0.011631394619411106,0.10491720249618798
-0.02953223575552541,0.7558700363140459,-0.2515377057265092
-0.09413385706272737,0.9270858749944583,-0.004845382141324912
-0.11038573196864189,0.23333102372309117,-0.024044245308496165
-0.14632098978198502,0.6220724678656528,-0.021139103369412125
0.0995420254215219,0.20374968819493822,-0.046132721011809874
-0.05740295091912056,0.6300068952240064,0.24587049281641177
-0.11134298600622697,0.28601093317207565,0.057610358801996844
-0.024859129835460635,0.7406195770875729,-0.2678187953598843
-0.09333639641154866,0.9367098684658923,-0.02576624267926176
-0.11719408028655556,0.7829454325823825,-0.13230113502762353
0.13356996199529245,0.2379698429257796,-0.220794355106847
0.01939645014960624,0.7758191816958263,-0.11053487385882182
-0.07119835499576317,0.3429108811498936,-0.06720572879197062
-0.02628161858673994,0.5911937358587293,0.26508978550515855
0.1274435511762927,0.5763448987459115,0.27019170199749964
0.02758559887811675,0.7818006028948097,-0.06176442201787946
0.058680535315527464,0.569985968501142,-0.1572818496723696
0.10017450315580051,0.04165769428498255,0.21719034945637503
0.006709049547497809,0.19345621458549425,0.18568681110737847
-0.11049085205014156,0.24200978505931517,-0.00810069174027711
0.040770673284456514,0.7210933304301904,-0.1958147017484157
-0.02825403772825852,0.9262952550504638,0.033867136510002574
0.05021857370444307,0.1450346003560659,0.3187016575354761
0.012478555538459148,0.7654202973447102,-0.13104060321707517
0.11883683583195463,0.22920558644704858,-0.20822422886026598
-0.08963083075813069,0.6197891526588056,-0.141076994014172
-0.053201789427237536,0.4816789533277407,-0.3455677621704914
-0.09291682265306406,0.3396543793285925,-0.08194229234821859
-0.07511627112734913,0.2527444631033303,-0.19606322852709898
0.029948948273807112,0.5629399190284039,0.05009543400654634
-0.13252489584825639,0.7496653622167755,0.07530133879131717
-0.02850651119646861,0.7937362849658719,-0.03493403766018978
0.110352,0.8522467821211539,0.28376455758917224
-0.029342091705117118,0.7324057775146292,0.1884962678944343
-0.10566663613898822,0.5490426012585867,0.03305981651469944
-0.029489836900491805,0.7646166962428891,-0.24735200254197104
0.013519188925875012,0.657923685804082,0.17382016535595687
-0.02298845165497862,0.18633632906458888,0.21325724535245788
-0.0851976662049874,0.3226639450312608,-0.19012665116091668
-0.107246147618626,0.4861276599031831,0.05535511559841234
0.05429762516395107,0.12094883866488493,0.32715874282479385
-0.07368353204801809,0.183769598310932,-0.228961387700439
0.0017330955566481443,0.7133209020269483,-0.03364509165908569
0.059166113090943294,0.4324380477470942,-0.011900170268470733
-0.03314075937497024,0.9836456635512605,-0.017756792553714047
-0.11249690679943829,0.5068708245684332,-0.04210983777019737
-0.049325475162047924,0.539166409906124,-0.2954023304034836
0.0908858241125366,0.22512968534859545,-0.008889685454504082
0.08548478276112897,0.4284399197152525,-0.1911183586179969
-0.09685882954779201,0.20952512712681903,-0.06446343318418901
-0.031053753128398368,0.6936176108722992,0.18861925667139395
0.020170644816201136,0.3492181217778801,-0.3329525962158436
0.056743241829557936,0.4957307671014232,0.3358669354266082
0.09108381586939338,0.4212207356827339,-0.222357105613222
-0.013918868445015485,0.682014250898489,0.074443341812686
0.06373461418101445,0.46404361426174784,0.3146510375835967
-0.14694079380519992,0.7238683713888044,-0.07091907610072193
-0.1455572375500655,0.6201530676666885,-0.011176710061919767
0.041934385491571524,0.5149164958149801,0.13016002997339096
0.025102006079951895,0.6217193283118547,0.13174362292948003
-0.029266443301115115,0.8199929283238621,0.18182993754480867
-0.09579766334644307,0.4160438385763838,0.13874764689370592
-0.14137731032935275,0.5992893808965102,-0.007128343227741609
-0.06034387098432806,0.941880403607834,-0.08423150178541079
0.08862200459165143,0.19424352984823232,0.04336105821086003
-0.02702183023660456,0.0011986666264011305,-0.2125366386607201
-0.04413686602147878,0.024443746300824392,-0.13549420577869128
0.07920612768498236,0.23768867218901446,0.17098672192299466
0.011249689396565524,0.6789248438146984,0.057930072645475617
0.09420801124648244,0.20358749020348424,0.10112872455926811
-0.07275498865069405,0.20669318193942116,-0.1864084363573416
0.0679124972444041,0.4709667279494099,0.3216318999767981
0.0075535152553829425,0.7521745464411094,0.11239137147323655
-0.09591082806065972,0.6899782475546603,-0.2525836492020543
-0.04908510020424545,0.6729785310946383,0.1836562386386203
-0.08285122752489547,0.6121941957285295,0.2763333710026718
0.08992271398745129,0.4072094279322962,-0.1991055124655952
-0.07269356596654619,0.5693924590519079,-0.31775045783559613
-0.047887865038074164,0.1916479845018433,-0.050129790058533366
-0.03841164626953145,0.5471888690124972,0.22683256391129653
0.01424167570733128,0.6561656543666101,0.17064576882369453
-0.02990611772217195,0.10119208361498569,-0.14960824411382598
0.08232169405468814,0.21384564373292192,0.06303977972434777
-0.077148,0.8247931980727452,-0.12296054829464632
-0.05829992196757169,0.22351177441485387,0.21136219983325624
0.042906900041523685,0.5032647629620959,0.021493190814876995
-0.05743573030902645,0.6311052860672742,0.030961039699947512
0.08028355782492552,0.37769091122785703,-0.09995707273068491
-0.029105697521907135,0.8193586948547512,0.012852612289716455
0.006172868839673662,0.656128559943794,0.12083344977491234
-0.005666629754905178,0.6925466059340604,0.0003749531341025042
0.05477217738462706,0.5296627280013191,-0.0864130465142171
-0.04054559065681461,0.26808462314520387,-0.20320448395072252
-0.10114086156460457,0.7287330095446994,-0.24418154896458294
-0.046968786144553736,0.529279108071918,-0.08537085402589707
-0.1253010790653314,0.6787942956706781,-0.1518434077108201
-0.049759785085717774,0.3933161784530475,-0.20889192055845432
-0.09133941985632577,0.7032798743209193,0.18652742245314946
0.10854288955377016,0.8625456049888448,0.2966939896403572
0.13628236741405714,0.17876378382696254,-0.2017487165499635
-0.059413830169242,0.5953072584973478,0.06677687097769061
-0.02132831152039885,0.8156705745954524,-0.09062398468305169
-0.09084805123275275,0.6859980128172186,0.22922616483302918
0.009308078013256185,0.6213724073989502,0.13665977185340436
0.09037686062674666,0.37809970952053373,-0.17078839684135716
0.03996502447969222,0.5260126773402491,0.1318836518164604
-0.10533158336843192,0.25721086285204997,0.15655384909170839
0.057852749213683184,0.6225939324993612,-0.10294372643391972
-0.05160862678076715,0.4857093663517046,-0.3058901683629388
-0.052986301770047185,0.5952861831194933,0.2400667578889959
0.005420608020991015,0.7912169585236066,-0.07144050648613712
0.08454409876637717,0.45852854111370417,-0.11308226029462698
-0.08845615253386742,0.011200301222499489,0.21763114838290146
-0.08088118693913057,0.43606081083493353,0.12246397484296115
0.04485834343910036,0.5862957448065671,0.031036188185358887
-0.08602264729405859,0.6296575647192239,0.18934533969639966
-0.08694225423534521,0.931277073283764,0.027409690317774217
-0.06394432039831342,0.4600311917276989,0.07487625184843893
0.027419792570720032,0.8984369965276231,-0.06697304536447074
0.08619321902434439,0.7635804149655402,0.32582687637859586
-0.04366069075923649,0.5616666472256303,-0.1269702397213838
-0.07273974627353258,0.6460001705229306,-0.1539357596941246
-0.09894068257369393,0.27000223097353593,-0.10476364101187552
-0.07015584917920885,0.26559125727429755,-0.2248954429936332
0.007333963664120749,0.5577619170661987,0.2643925740056235
-0.08954341374441821,0.6802011633533688,-0.14478356423880534
-0.05522740202760651,0.02904239127290435,0.226098626660432
0.04662552491600745,0.6120779699725899,-0.11873756041784134
0.06631289281558918,0.4043080118800351,0.324230232927624
-0.017435926803582566,0.9170674384245149,0.0425848510836465
-0.013846846890283518,0.7622735353644364,0.1454528211591788
-0.0006596406699134263,0.8071862461043213,0.0024579904596462865
-0.027106579547456704,0.6227714277164623,0.07139454048938843
-0.16030653608236412,0.762024766732721,0.17086908946841767
-0.03348047238325546,0.7987474205919793,-0.02197080670043843
-0.0633997373320724,0.6346894052052736,0.11431864434635482
-0.026439830893299224,0.4948136501187354,0.266429261334333
-0.08066066957522107,0.49311612505063884,-0.124668217042699
-0.07645536957524877,0.7565114107213969,-0.2470651461097833
-0.005450038758208275,0.18800874917269267,-0.13206009977915803
-0.04034980148304306,0.20660844611478552,-0.01900533665632323
-0.11913555448069646,0.5849161206076672,-0.07014778687324691
0.06722587348843545,0.4857982532402848,0.319513560139024
0.028890100198824868,0.7759451617233751,-0.18057954981978158
-0.11539000396944477,0.11997523741197763,0.14614480735316707
-0.0961498911917145,0.08921344810406577,0.12366113997432401
0.07524947864936213,0.6469073426228236,0.31321760185627184
-0.06637063377369137,0.23628473255843294,0.1778940913927869
-0.013339201441831686,0.7537375106950064,0.15586006287130572
0.04567308931429172,0.3662672697548003,-0.26564221641548685
0.005090004589682735,0.4695094859523876,-0.29264113417216353
0.08406400381707646,0.2614714909670566,-0.0006216259572833782
-0.04980468683824442,0.42100845891265276,-0.16558057411085791
0.017449269070731285,0.7924457415447421,-0.0018186389656757174
-0.07301716472082503,0.4122913647874011,0.08867031785555599
-0.008359147174394982,0.6691656432911784,-0.031783719830551824
0.07057099669210257,0.44014723074042345,0.007981351856945595
-0.09911063206050842,0.7320825867860778,-0.24373936634827748
0.051663704156574536,0.5078065835194021,-0.04109601942389571
0.0069199119704088236,0.8639922072103391,-0.1305632320013676
-0.07230972811242994,0.6791665866751155,0.23385200903514908
0.07330731853385637,0.03536185889390781,0.2730609529426177
-0.08321742196854619,0.3944517129364887,-0.1594563133875908
-0.04653029878346724,0.8033793966402291,-0.019550215366236436
-0.055494890331036516,0.6091142157789675,0.22404223639637577
-0.02408468075027867,0.6379901234093577,0.12184665041340181
-0.13470895819630688,0.7057570393076227,-0.12548508842581976
-0.014276796244376888,0.21354536522200454,0.21039706759308388
0.06542919874714764,0.04812377926314823,-0.2611074714262151
-0.1459833080063209,0.6312700655116473,0.017693089110379687
-0.10628711162446268,0.30165014022984205,0.025584274349990804
0.02471824560394245,0.7497450464090675,-0.006263311951591521
0.07883916942108019,0.4683029337137634,-0.08287329637105462
0.059234458127614804,0.5450398573363926,-0.13416380052110063
0.06634773837399459,0.0,0.15924308755008088
-0.08576795892056711,0.8242162187388417,-0.10080478896131435
-0.0332278049474168,0.9479308587576821,0.014178328858448094
-0.04801898118586989,0.2045972908717317,0.21144652585383744
0.04052234853804464,0.4071401175979068,-0.3653651654510801
-0.12010639806317906,0.8114622214740485,-0.16205779188457792
-0.0042349130694942505,0.6735001787625364,-0.07107773893728118
0.1492734254585145,0.041416371454138255,-0.24462071330043503
0.028423179591729505,0.7675174178387952,-0.16770618152941158
0.051687675001233925,0.4030416488721208,0.18418830951515067
-0.08654692052575617,0.8288666006687864,0.1777949107896346
-0.10526540211485791,0.6479365522808942,-0.12227407425717293
-0.09702827631172414,0.21866033120961437,-0.2028847853688197
0.08486395082421681,0.22656469773175658,0.03155388554897631
-0.05646549510585744,0.5767607071327211,-0.2755357615823708
0.1153001116277766,0.040156197982878346,-0.2762906995009512
-0.12928692247347529,0.7222725773465073,-0.23138567020224324
-0.12670661823817833,0.7207073858760736,0.19931304155831686
-0.11328392706523864,0.6795442498034673,0.20374982318236892
-0.07110584661464227,0.7178112951532777,0.16218157036893036
-0.045943095828942807,0.7986575654315029,-0.03880405453464212
-0.015595572101844523,0.6711065599245947,0.06442264314889214
-0.04014751569220107,0.9024495423546731,0.05390986359041089
-0.13567070645268633,0.7690046129456392,-0.07031522818357411
0.019180000536126167,0.7651560074171996,0.015943581271607665
-0.03923685657965173,0.2162752698037815,-0.23556375345887284
-0.018439912076075905,0.001410520051093433,-0.22581141901414908
