x,y,z
0.07543064833880755,0.4180692126394741,-0.22461786270044592
0.24410494606466274,0.48750345047421245,-0.08725032703143082
-0.223007649263231,0.6063578148797449,-0.2664431614583296
0.12828551254606227,0.9165760224210228,0.20559489567111988
0.26286958738713984,0.0,-0.3472549738536085
-0.3044527973488488,0.22145127854772748,-0.3853975188866276
-0.1403706881722229,0.20742040639863357,0.3658587809322301
0.20605140575592568,0.5649738282028637,-0.3105812033627265
-0.3790065375142992,0.26783984832681257,-0.34916363407134615
-0.1662195465116215,0.008077753246242424,-0.23059479683735923
0.20277091435276687,0.9449658274370274,0.2947970281405847
-0.4371807685723928,0.23345904351985106,-0.2180602895905892
-0.029641917214785565,0.22618229059477338,0.3585933308185493
-0.36062982992369685,0.2772711693693194,-0.3689886169440512
0.1756376194497795,0.8956944951180102,-0.2434093068474145
0.33149678728081733,0.2152817376085039,-0.12688483299398257
-0.16998914978892257,0.6810126831643595,-0.17423231252031787
-0.27154604201412746,0.06966157244284192,0.37096710139768035
-0.059968171749500906,0.16003288211210487,-0.1933992404351545
0.2259431577982058,0.35130862006377606,-0.009631697582471215
-0.04493654640076367,0.04635630606408919,0.169288725519041
-0.27028064147412567,0.4264850026288259,-0.3708964141639469
-0.2009370092814498,0.6273699133909947,-0.2361385736381576
0.144772453365765,0.9183680199449626,-0.13725751637862724
0.2924341077110225,0.1061820141411596,-0.07851386863182172
-0.2687051731485072,0.27957124397116695,0.42984173366342054
-0.47074789224936653,0.4062421233195807,-0.11216679612008254
0.15129751806472388,0.28934114269786926,0.02123159257327551
0.04617992675166225,0.03162910701213191,0.43023720607640964
0.30273235803880344,0.23032253157444368,-0.3426658624612447
0.0971792893863119,0.19986969211361566,-0.352786597185894
0.02830706958316017,0.06884867784306346,0.04508155156777726
0.24757305412027958,0.936765741156464,-0.17621105060705278
0.20840325562289577,0.3934183530093254,0.23725638205246377
0.039055747582041736,0.046513270639710974,0.2444221055059605
-0.009375603101370528,0.01208115165549662,-0.29437653636657873
-0.4111988289892444,0.5956121571419887,-0.0438247438238835
0.28582472810707904,0.21408009403392433,-0.13285425612436633
0.1818852372020258,0.44403963508880506,-0.16593760279090586
0.10719056984919823,0.19915212973952134,0.15693375115728309
0.1940820154031534,0.9222624818842847,-0.10851868215658168
0.27949428195740966,0.7444591831186287,0.3047092423641843
0.3268970638115511,0.535965375465226,-0.007577242431216276
0.12367877534455318,0.07510783788825652,0.033470489767655945
0.12788035022102112,0.17434117251992098,0.2212972752191399
0.27624901909514055,0.379358350495053,0.1007743157017233
-0.4630896176565224,0.1445222144783585,0.03526345352281549
-0.3915194242115538,0.16890892500241345,0.33964158551313817
0.09615839555493601,0.2438306235524689,-0.3042356344092187
0.023493805784874124,0.7505483088187704,-0.2446537153703987
0.17800481832666942,0.029646717954687526,-0.18688124501961906
-0.34989598569958624,0.6667489203350874,-0.12064198185714202
-0.3325690201189648,0.061637055298448956,-0.349247494946558
-0.22601182316946056,0.6196839433615673,-0.2518054785110493
-0.41269612563611746,0.5841401218174566,-0.1569076507228341
0.012317552605215727,0.90823168519057,0.20933070413789248
-0.1519500028813875,0.8429263400541597,0.17988166956199045
-0.37474864281536846,0.12013692277553213,-0.31565671126103695
0.1162238124385846,0.7574152447360749,-0.25748867000775616
-0.43608377628504835,0.3292391822504322,-0.28985255819685757
0.04004255449532395,0.05717469931434698,0.14649035551493178
0.13667163063153162,0.3109120468449268,-0.035335555381116726
0.226133884955977,0.8878006827533346,-0.1587327352766633
-0.18698987284783797,0.194903456316814,0.41280563848020396
0.36828849877199604,0.2289912844070941,-0.29458339253936255
-0.015121520744353394,0.7683079928168934,-0.21331408497039414
0.10808508565512404,0.0,-0.32205391544887874
-0.017303692527686577,0.35849215013015634,-0.3542439964634647
-0.022357604609812703,0.43785986587243036,0.4054826614724687
0.41052491334376917,0.00333998062041347,-0.25599141553458493
0.3762075623390517,0.10978936720362834,-0.06422765658031906
0.09898265025431005,0.22067523786374366,0.26135299476976503
-0.21227906130523905,0.31039568065842493,-0.41626879126126615
-0.27809570432573094,0.4610332366414913,-0.3571562741298005
-0.012995440244717315,0.15493325897051552,-0.47754946300223994
0.28698715577272427,0.45778573988240473,0.0300495944311686
-0.16055805294635322,0.30515165244841286,0.36770820969889884
-0.4186869833999348,0.19929101971980057,-0.17430025633686025
0.14530695355572845,0.22597895121044176,0.027515742068336166
-0.371614331868372,0.05209817171652888,0.2770733230452317
0.3317607023893267,0.5099274174230494,-0.021321637651746553
0.11857496344019072,0.15980297230396545,0.15506544237816444
0.0675056614361902,0.9293304934734555,0.15040701524176706
0.24838254490623687,0.7285739832372212,0.3351573226910703
-0.061013143581757655,0.36794559001012156,0.40677183852896853
0.2738487199954388,0.20077514487897585,-0.39561482906839573
0.05431166389560557,0.3383977354843793,-0.30257897393259753
-0.03212347791890356,0.013460221181570262,0.27629885282933886
-0.46478776884586137,0.1403975347846499,0.19099928890970136
-0.09180319318882968,0.897687901023299,0.05641731234444198
-0.46692475595178606,0.3360771107988174,-0.2168082306718937
-0.12198055590449032,0.4467524205239011,-0.32426199741574746
-0.4490409188351306,0.2923302872078448,-0.0677441290072144
-0.10059003176326914,0.6230346234726836,0.38661848203877847
0.44816246567888024,0.15326713357095717,-0.2775038873868378
-0.06846765498218121,0.007561553868790247,0.4466301427318377
-0.3781016237799296,0.4085333184834423,0.31215038708803317
0.06381091527183952,0.671311936115863,0.45824253212965044
-0.17945625694850953,0.8206936521764082,0.185538510998074
0.2785706183898016,0.7358310585914404,-0.1584947885853308
0.09699834741659918,0.9294031420039021,0.14704071267499236
0.42462021992299354,0.20423615937889153,-0.17447852276404457
0.45724505620269357,0.14115529610278757,-0.12985504405968776
0.14373085220614396,0.3527181284565136,-0.07263855422037521
0.4194478570961873,0.018100766348350308,-0.12809385044421912
0.4300655079375108,0.20119704686423198,-0.22098240927714471
0.2570922639714669,0.44143814340947074,0.18783659320643345
-0.08470371827980415,0.4077000500781503,-0.3196120750617157
-0.4624481469238378,0.4209839375390551,0.11222302174775375
0.06058960295730803,0.2976592613798448,0.360919080009314
0.08084114094810722,0.003906,0.2518809700162568
0.03752708374876815,0.45669860148369223,0.41396313200391643
-0.39326907187965215,0.08020882015571838,0.27629185437857073
-0.32184108265460154,0.0,-0.04097899596344562
0.1968245260367873,0.9297702480332121,0.2580244297999632
-0.0712748750170249,0.3210268217153449,-0.4050295469373521
-0.33075774421968757,0.0,0.03799499122371298
0.1958491550857445,0.5171202133489843,0.2842161585452547
0.0938289398074208,0.2826875173441686,0.3303175953170695
-0.05992242045769334,0.5555478579421503,-0.26739838189661586
0.08935233164164799,0.28018271612185225,0.33375365017210545
-0.3537491632348661,0.6765850371041684,0.024251843301283396
0.31193029267897016,0.5817842718611289,0.13595589749322465
0.025584557253649765,0.10642085383296146,0.40029229149204676
0.1554664893171135,0.003906,0.18075394273398623
-0.058740141871017386,0.08648032253848588,0.4572471334729082
-0.4359947478499355,0.27159765790394463,0.03674840428326436
-0.01705365394367768,0.07765016593079938,0.21237880721741703
0.2509285027995227,0.9219673526829121,0.30757559951630153
-0.4341141420842198,0.08863824722128712,0.1134406907081578
0.19350580128560396,0.531549917612009,0.3017081520452428
0.06172649504423438,0.23530812184948138,-0.3656086264003453
-0.2620007488941415,0.34935790078911566,0.3893485714867904
-0.35945595567439137,0.011831314220362094,-0.2350121544589509
0.10017231530221751,0.6376788335146517,-0.33234035501375825
-0.10165206355813329,0.0,-0.3430208397712506
-0.38732472870077006,0.012453307898334341,0.16104589227567578
0.007585792479988205,0.07348423987536701,0.44900016402772586
-0.38868486295877946,0.5727291179246041,-0.22655989555738532
0.03597266951840449,0.11297926488079926,0.30152086713131043
0.21541202366391576,0.49635240433074557,-0.10943215679429007
0.13963483042046165,0.3669539595724416,0.25842605408944663
0.04493720593747626,0.4704266052649748,-0.293967097179699
-0.2853177644806989,0.005027289568260523,0.31266403081500194
0.17596294698823872,0.6786468099234289,0.40083277144330176
-0.41472822112644125,0.5249402935009155,-0.23321611438172962
0.3002231987028517,0.15067950554234058,-0.08303066814828725
-0.06973363672870822,0.12850794371570987,-0.13144666350855524
-0.3232175934575293,0.24847525307466714,-0.3841497471540781
0.030632468673410955,0.21689856807986851,-0.20943310107216934
0.09471413450108977,0.003906,0.18323037341550208
0.3262501204603963,0.8029718377666345,-0.012304390812291318
-0.4738774595256564,0.36799458766323945,-0.10207726592624167
0.2705233857807683,0.48203312387952285,0.24208599984427887
0.11304901192187912,0.5416167789505191,0.43487582741768505
0.19413099941133288,0.6878562099752604,0.3738440810684869
0.25132988506291726,0.8484510858371345,0.264088954260979
-0.16016417201088506,0.024366220317771067,-0.05607111948353796
-0.4458659847778982,0.1757306963731148,-0.1417739084489669
-0.025585161123699948,0.5310350960945499,0.43088316761164047
-0.27508019503841785,0.0,0.04868472824646573
-0.27053108596360737,0.0,-0.04646313942694438
-0.419178217702194,0.09537781790981542,0.08140605704966945
0.15526568195283907,0.28438729677269226,0.04406555528606616
-0.04961305136403758,0.06714247365414781,0.4633122073590316
-0.21013529850466584,0.7026844731158696,-0.12190178486745835
0.1332981642786858,0.48287396225032125,0.38579306535385866
-0.3068659163138712,0.0,-0.00946299085530599
0.10005753995051711,0.3028777438912196,-0.1692590983397963
-0.38265279486220677,0.6376546215731898,0.08548769776660414
-0.27973803014340687,0.6864488022868908,0.2733559483303013
0.11682541490439483,0.3280511228932206,0.2808691770169106
0.10117861524268554,0.07282806423229246,0.2671059839616597
0.29892084058456475,0.24493778800448895,-0.3155568364786607
0.03262870891006313,0.04368312428792742,0.1601897041793784
0.19842522624234998,0.5302983103887591,0.2970445098990015
-0.06990022793917935,0.8913718797684774,0.1850781696748058
0.2735811569966765,0.4515441005249237,-0.013439241023578484
-0.3482054913186679,0.22257624292774603,0.39945715189802633
-0.47080057985415413,0.3080678722623296,0.10819448414302854
-0.08022347010465003,0.09999226003766065,-0.25069651006909105
0.38601027455586856,0.14092617270597346,-0.37252353099811886
-0.09514672247508214,0.0017896633027279455,0.366353352965815
-0.37842198831512913,0.21305601229323112,-0.3208413173030176
-0.00683195949796701,0.056034251973360476,0.27369475738909516
-0.15219312955339576,0.6077082525351125,-0.24408542582880727
0.1924642751550607,0.1549600612658715,-0.44391881909408615
0.24001322614421225,0.5930003676369255,-0.27450673862265657
-0.41563567974799087,0.46541104976720366,0.2656803746126594
0.2162018156894155,0.5615555063717482,-0.2896666397157267
-0.41717891553560726,0.09862673231859635,0.26644159513668925
0.06014983769200979,0.2268077781412488,-0.3678909565004524
-0.4471640594533843,0.32735189374445,-0.26313554577103737
0.05730114236817,0.749255637021499,0.4091922066913699
-0.17265401289500013,0.0,-0.3318842182259829
-0.2148276731038911,0.7746164265121578,-0.045119079798728715
0.04087375367937481,0.8744898180767205,-0.11142115021981683
-0.45558200343780525,0.2676457428611131,-0.20863986705285437
-0.34186432478089096,0.6767568294435296,0.12985774715420606
-0.4513787825477782,0.4539933213098423,0.11154608464459988
0.021999125764481577,0.06775460126898787,0.02724760942025061
-0.09193450086799475,0.13566343977102902,0.2664564793060237
-0.12115690002900492,0.5027378651972625,-0.30740422038888654
-0.022226192593677675,0.016722784457966728,-0.4563614826087716
0.24632414748036696,0.7271486193619672,0.33725955768793225
0.14642683440614013,0.001953,0.0016694629887247618
0.3274102571530731,0.5182585321060846,-0.05058435574214619
0.2517626410382483,0.6214247266798474,-0.1685071659473689
-0.38464790938901716,0.1048419151953211,-0.3040649869595527
0.4130421244843468,0.1384991484876732,-0.08660928343141822
0.08482381577624357,0.04724427631777288,0.33418997428768543
0.11310669732732317,0.6310278322690687,-0.31919087541903535
0.274419941512663,0.5942212747330589,0.2783205255542968
-0.11956847460379721,0.8835034291850845,0.10836254890790661
0.2944250276142521,0.47651235967850225,-0.07027836390619965
-0.1728301421921259,0.0013639648267835846,0.24510599508476416
-0.28589533170451087,0.3931898362949777,0.3581331021039754
0.47009712278127386,0.05875741264121956,-0.2746976124052083
-0.31803561953297355,0.2635099509196681,0.42122555224219005
0.10521672847680213,0.053715188332028534,-0.4777514493477649
-0.03875507150183757,0.09646862845681091,-0.11431511284283627
-0.04622725405749875,0.1362016591070511,-0.26916074750667446
-0.16563158415835025,0.0,-0.24588909011972157
-0.1351931838239494,0.04043788295697658,-0.07108277041157905
0.3205030683240527,0.47501320246173045,0.17097503475367626
0.05941684238719204,0.05024227013975156,0.022601752776364878
0.10882382990337548,0.1778593571853437,-0.015023652055901006
0.06118857250474481,0.5705229781809514,0.4851563967351882
0.07389339101078268,0.6514926720815487,-0.31999208877287716
0.012715231194532006,0.010071275108284629,-0.4439253872958641
0.1406843162046252,0.9107875864644551,0.335918621267667
-0.408562021019348,0.0313485816294529,-0.02422547521858786
0.024141670783260655,0.4897539254599569,-0.28907952041198964
-0.09758658582980255,0.6667924309507337,-0.24515089648345104
-0.3966932493587935,0.019680587247574637,0.14699988903320313
-0.4182259942161012,0.032063291015979566,-0.032236828446426474
-0.12802325447170332,0.08079937457262172,-0.12348961694249744
-0.3106477656254186,0.5964251748413514,-0.2619617799117176
0.08331940650177269,0.71708323397807,0.4367303749398438
-0.04256123073833271,0.09490228652893587,-0.10445545217757823
0.28201312801831696,0.427610702063782,0.10849813580126019
0.022983767011916994,0.09561877625584628,0.4183670430191108
-0.1693632618293223,0.607971900596838,-0.24691291315752384
-0.39772247642902486,0.6154159569616784,0.08436696705582813
0.1453850621449365,0.20850657415967316,0.07371652027820703
-0.15920671273314368,0.7639853308602724,0.3020958186002577
-0.4449493152187847,0.5116370972734271,-0.12852740355482337
-0.39028675068527885,0.635179494124163,-0.03533714076678168
0.12241082045625057,0.49023118525660947,-0.2534420677287892
0.3609585956678207,0.2582202111805965,-0.21746566748245788
0.29746379391304134,0.5609890840489257,-0.028191867550220406
-0.14407615324978956,0.04359191910812001,-0.1922835275755952
0.12508602649149506,0.9070085593602506,-0.07480983676813749
-0.0892676807137864,0.1374674490964582,0.27650827938281947
0.007283681551364144,0.0732436802336584,-0.01739080884630672
0.37134979779347277,0.7113031336645915,0.1349826250902963
-0.3986460226769831,0.3663325182381443,-0.33644005038259744
-0.07185320205132176,0.891045063414636,0.18344851911072801
-0.07983336856771275,0.7508349745958953,-0.19890495250089574
-0.3986556035264248,0.07366217070760654,0.05410090712831999
-0.009880571557492307,0.8308382882050304,-0.15524125525940147
0.2826664661532587,0.10939771454558661,-0.08263935058528908
-0.47734876879348914,0.21840787154990665,0.14770214388965108
0.19665536009675286,0.09475556740146407,-0.4649512761421893
0.14142176851371183,0.6392349326858062,-0.2891830959255664
0.08047046067610082,0.6718294913718776,0.4593371801437158
-0.209908215260933,0.7906046837017856,-0.03271105737822676
-0.131691890281554,0.6368135553655566,0.36662654969721076
-0.12148183511701152,0.7008658881310259,0.37192006430698965
-0.13015212023017214,0.06541557534983844,-0.17108554472647122
0.10229194011123294,0.33878214572888327,0.31216967268224405
-0.41412102972976483,0.06379771418377611,0.10148142149331191
-0.041919915648254535,0.6077221654313214,0.432227620328485
-0.04767209159000959,0.05261996972804858,0.17818644581014934
0.3155731677522,0.5363685690690501,-0.05880415046315862
0.2776844065748291,0.8701462815324198,0.05562357541729978
0.27759847473858806,0.24867203009633435,-0.19814145064101682
0.07578253992626617,0.003906,0.17302287853211332
0.06989626796576244,0.14152319512193828,0.3100421686933802
0.333583285975136,0.25193189031725555,-0.17094973200225017
0.2663403416272658,0.23149635730098744,-0.1684898362510628
-0.02975556280490558,0.1641833768675893,-0.1796598372272236
-0.3218434358296432,0.5750564727815988,-0.27750887641768
-0.17818832779936786,0.0,0.11810414078123438
0.3369982789079707,0.11388410147574378,-0.41146334527578504
-0.3687977101279535,0.24924008528713001,-0.3501288511909324
0.11715977951940856,0.33266952025358876,0.2805633290829359
0.30054365185032933,0.5412338853387764,-0.10097687139657535
-0.18406511023982414,0.0003393327684188276,0.20363508215513781
0.20106574612120748,0.1369713786190001,-0.1389808989425565
0.20006316476542033,0.9238730195506364,0.10214192493831324
0.06265876917102144,0.08495297033405887,0.3408529346067236
-0.1835215132293083,0.6308361845034481,-0.22683493411248445
-0.4405127530587303,0.5231446868393677,-0.17255607907739506
-0.16088730523203731,0.789368999187563,-0.10093981291167933
0.045289573155376774,0.9311676306314204,0.05874646079328637
-0.01540006320208094,0.13154564149546305,-0.4868257728869459
-0.18205365833203935,0.0,-0.3313646183217753
-0.456658744209025,0.23456556939996276,0.08329265743814213
0.35488640067338373,0.7622463057684742,0.16581195106099178
-0.040281303964698284,0.008881444013100093,-0.2978745122818389
0.44692642498892676,0.02408339506752849,-0.25755505160417635
0.1070432619218766,0.7587952373517066,0.4040625202917635
0.31178270706421257,0.8265250769873965,0.09584997595406537
0.25434454285651564,0.4716123022260062,-0.08135894706036824
-0.1616518200731721,0.7822349926911856,-0.10580773607658568
0.33457407496418096,0.1920268559582115,-0.3750094473234073
-0.07912465265119598,0.14445681902803859,-0.1721501797216121
0.24670228382319398,0.4440111531256553,-0.03529234007412056
-0.4599847028572681,0.3626320352897183,0.24423896253475305
0.1519925900487386,0.9037951134164899,0.36037120326462396
-0.08156138179376227,0.3093064697115855,0.38961770877846585
-0.44426069618418906,0.19378819419248602,0.051093768465484704
0.1298177377912193,0.09654838614824926,-0.08863712969557198
-0.3487414952763583,0.2187136146496523,0.3988191886623224
-0.38443908368299073,0.565781749314918,-0.24371304993041545
0.34818953339224396,0.22136642352094307,-0.34233520140310625
0.1721280763895346,0.7144186136510424,-0.2470283386505778
-0.4501176443002222,0.28240573462016305,-0.23877672867794242
-0.2151302560440755,0.8142540777504059,0.0709174505886534
-0.16647607629501232,0.38980631116739856,0.3922587418032402
-0.2788660165117247,0.6467259400640193,-0.2161185292431668
0.05860115860869938,0.0905263200213921,0.3733652379995946
-0.47399956560707845,0.358129292118081,-0.13709437717879389
0.2598119753226745,0.0,-0.3088429137505595
-0.03522342571536133,0.031200600628089707,-0.47020130871838783
-0.09777068857801105,0.7328607512684853,-0.20074575741240885
0.1953898392717877,0.017499276951559756,0.15703010155565095
0.09396953577933756,0.32538369725217486,0.3335080592777336
-0.20727128340851125,0.00018682125198604015,-0.13792115963634766
0.11840593626121783,0.23124713632267904,-0.02653726812430173
-0.15004038348752063,0.014127654272828798,0.4219460593254868
-0.02054289880357133,0.0,0.4284393494694699
-0.08149984066380356,0.817100374844469,0.31361202113427505
0.2911738772511445,0.45562151300388576,0.1131317007669698
0.21267972207771996,0.07174024376449484,-0.13258185054861518
0.08350575029636928,0.20376211184528542,-0.3123682786050893
0.1757550303631683,0.8957085470019582,-0.24351239745813433
0.43973468905496876,0.17298720113599098,-0.2745906166000836
-0.21567079566814845,0.533501268921986,0.38074980755062027
-0.1369979885092269,0.0,-0.2765423543139637
0.3448018002074184,0.08614837047069387,-0.4113134361363381
-0.0035536558807432,0.06381344514871873,-0.2549701162914857
-0.2822030641916394,0.29494878490332543,0.42100894513052783
0.18627188684046078,0.4292680479259289,0.2979768553645904
0.04734232500863651,0.27970639564343436,0.36849753274896513
0.13135362934373035,0.8816276968976573,-0.2011013039091859
0.21426535593513898,0.12680630781785174,-0.1277537415284122
-0.06078895246908324,0.543633021287265,0.41280316696602387
0.07335055672340306,0.20644230410004272,-0.2584689876374699
0.09935748743976565,0.26362290212691664,-0.16501485585381398
-0.2675610015068947,0.0,-0.1954018419329878
-0.4206165004876956,0.2952109680575668,-0.3155474999471234
0.34638104567963857,0.5807070493811641,0.05790268015491497
0.05563234595587063,0.09567654410987653,0.07511466938853507
0.08718409980740778,0.7777698090081775,-0.2330351892023711
0.14024214378626843,0.9201888568749598,-0.015411614731099615
0.09010615869284302,0.22425146743999236,-0.3251522487527502
0.24699225301792732,0.6427921518534299,-0.16441976181562862
-0.35957860945260717,0.008436210328700382,0.23583177999543747
0.09802437704445391,0.33945026642101467,0.3220015989359693
-0.18370536239375557,0.0,0.16293493344354706
-0.4466433231146041,0.5131399263583835,-0.07651597310838734
-0.4702417722408991,0.4007534409955521,-0.13451667621152286
-0.0728090304581788,0.8830154262343393,0.20898482243148148
0.10547157832128576,0.16749054943415162,-0.23964728865062976
-0.20385495928279238,0.24223091404744138,0.4268809239286091
0.04110138595608334,0.7623587077314686,0.39839306029197097
0.12211741026381884,0.5049998563641833,-0.26286097388919144
0.3789174856697088,0.19391257152903477,-0.11633323704773618
0.13489645915412926,0.5864694985381985,-0.28829344426710246
-0.275938391606077,0.18454038908271708,-0.3934532956340286
-0.23230793451898274,0.009719056768958727,-0.37419498504035986
-0.47432095813806724,0.39169541571229527,0.18736974894024944
0.2857837422956664,0.566422577509365,-0.09718573953745654
-0.05628889919434911,0.03146572493751981,0.24505627600431423
0.28949743542785245,0.03476573295330813,-0.1008488465347571
-0.02570580794162046,0.5758604296490696,0.44231466649497136
-0.12226620184654095,0.14919803721111083,0.30203105220973414
-0.1726809993656392,0.021436895237251705,-0.18207602465202186
0.28366066006952567,0.45173969592668006,0.1026995210109544
-0.02668894969962937,0.3650732435992442,-0.35222893400715255
0.18142516020045862,0.049460539336444884,0.12138444645980896
-0.40342171244887104,0.25616084257742733,0.3336674146208456
0.0416794707296599,0.5410443535385113,-0.32243310680082726
0.43118252975781457,0.0074210537897941905,-0.22659990857624882
-0.19285875512811695,0.2598305053417389,0.41849759331772074
0.08476365339417584,0.7004351748353819,-0.295893248489983
0.1296259788146512,0.6196464938883888,0.4481467293399237
-0.26364169157863604,0.39055022443295573,0.36253241775079853
-0.19451542084737905,0.8342961155407593,0.0715014148052164
-0.01585637010172474,0.13851641259188327,0.3325343972669949
-0.008721180330286687,0.11987019779574601,-0.49074853590522693
-0.24027184195142293,0.3484551485717396,0.3866266414426038
-0.16098857925614196,0.8563883979972237,0.04422638377256939
0.2461205360989802,0.46293647989187686,0.22749592328668
-0.10485703921225506,0.5650563823240389,-0.26778383525902394
-0.3158549693249742,0.0,-0.1002452702440465
-0.08662434393664599,0.7193598994464598,0.38058353331990613
0.008403653704289839,0.0,0.30165202872893004
0.08721598968141388,0.04556064356097203,0.3446174733918621
0.4521094694452443,0.1608043056875288,-0.2767080902238835
-0.2755091375123944,0.7189590797576,0.20778446691861646
0.1143225504185305,0.5883376348854014,0.45438845828198043
0.46247855326267817,0.07470629665060388,-0.12816699552650065
-0.1722820549631733,0.18082213607677086,-0.4482121372286166
-0.06975210210971369,0.6872475234123318,0.4035679901961491
0.038887898466414626,0.411635915355041,-0.2479422973968009
-0.48549229841422065,0.30417684940732026,0.16858163339138735
0.47213801050426857,0.048905370239250685,-0.1571430113095423
-0.03516656046082432,0.8647438640880323,0.265065273720638
0.2612868540604459,0.5659621558006873,-0.17150706055788598
-0.15334272209443817,8.421731034504846e-05,0.13635863308431645
-0.012952746545057271,0.13141046825011005,0.40808277241126145
0.2526810381362693,0.5198290596196092,0.29391761955336493
-0.27982171771618125,0.0,-0.20176299985724686
-0.03263120057082174,0.10872435980221838,0.2659700281565983
0.19410960348421172,0.8588238248486877,0.3337005986209929
0.013629362839155189,0.2705927542933475,0.37757058536220844
0.15932451189438193,0.6012626346142722,0.40724305834008356
0.14289493529088929,0.9307548963781951,0.0598295684094367
0.17533461537070097,0.21805635129631523,-0.2213855949591152
0.12387792604415547,0.4957328869676566,0.4018947953363301
-0.09748755561276477,0.8303168563449367,-0.10705487214351236
-0.34355104136545067,0.285197779779609,0.3963676329142198
-0.37548058406973417,0.17880994226716493,-0.3034912859267892
-0.3034284306267876,0.11634342671635525,0.39250865888647557
-0.3155370641461083,0.5141954360065069,0.33873227321561294
-0.19122485414831097,0.716935365399313,-0.1349332821290014
0.24971239454626493,0.1881570113787818,-0.13026128568971604
0.3810628231889879,0.21175384378404177,-0.31392924046540516
-0.2564212998478224,0.7318390238510235,-0.046906565350580354
0.1830523673727566,0.005170226345655756,-0.053048817626776365
0.21314414592340847,0.868618344476487,0.29134234482854443
-0.3476031710956092,0.15630296238408237,-0.3423720514115044
0.30215958436773005,0.8010698101635945,-0.07681924375459509
0.03413095060307719,0.24627726287259608,0.3610419481450831
-0.3831097958713246,0.23530566242036646,0.36602032586136807
-0.07974077565379185,0.13752549319145274,0.2895898409316113
-0.326237423151612,0.3833628657601101,0.34412749391086855
0.18050651130615497,0.16080040020760342,-0.16296000250381415
0.07707412552276578,0.7246231424235322,0.43028751929313286
0.00420960813373248,0.24574617144400157,0.3698444957469844
0.29558746132180846,0.5639162746869729,0.21268210511667063
0.23465046382542631,0.9698742244042213,0.3761738233836721
0.2225871037156512,0.817429355702072,-0.16480555228380075
0.08377430163815199,0.4322355383885175,0.37733659044213086
0.04762437079397389,0.9224956381733714,0.19678493045313497
0.10674862759564559,0.19893668788857177,0.1573362879530213
0.33088968547643344,0.6119345567850766,0.13061701173937984
-0.004852487225826249,0.1030587142166719,0.2823361679659507
0.19868912697202587,0.8931493720868682,0.3264381391579336
-0.032751680681319915,0.10773132073089292,-0.13050726945655838
-0.0722294198523229,0.12408915588289948,-0.11958508892815119
0.19206845043824722,0.6579558525260811,0.38466124316467004
0.29782979795098946,0.5552294319024541,0.30399060554109103
-0.11163403266474405,0.018343444347848514,0.13226654577250918
0.09839693930068977,0.17535832967854903,0.15636706488135302
-0.044124714923385946,0.822377510317947,0.32456899433528014
-0.15959431400840765,0.49844910825496286,-0.31585557059180214
-0.19511706264580936,0.4400184225999658,-0.3609442026636265
0.2330927256473418,0.5935319736705998,0.43127255019314803
-0.4655558289004952,0.38168339079243524,-0.06191485389899683
-0.009573174052041694,0.4652340565628926,0.4122038407046156
-0.2808525180067861,0.3907426959848917,0.3587870631970206
0.024322715736034846,0.9226506253979995,0.17561443430755633
0.26119768998161924,0.6307675795379819,0.2714610167941434
0.07227764438602842,0.017009245597992988,0.25944316850499993
0.008339037655885678,0.04749297362343985,0.4566881625111836
0.17183672920606263,0.6930702104724253,0.40214953339207615
-0.4479030317625114,0.33923559027055106,-0.26437357809798473
-0.004309579492020002,0.6983092951454638,0.42310784693013276
0.14274195618480684,0.5557881868256798,0.4110947522313103
-0.3639822922543068,0.6631810650480443,0.050166098713935944
0.37660848832465904,0.19372724889819462,-0.11565940496464733
0.007943043252908396,0.0,-0.3274663956346091
-0.255459508182885,0.4600512213935748,0.37021151370521066
-0.01078705979573271,0.5154440520817215,0.4354000361663305
0.3703352667325477,0.03871992860258297,-0.07882607286331415
0.02744005998059359,0.03473928512224831,0.2880479882795987
-0.0602974265464469,0.7132637013086818,0.3958847078528547
-0.2816979428622948,0.0,0.006676654602286197
0.22215205932477186,0.9107414020311244,0.07115218653734816
0.07351473175401732,0.13139061458029094,0.08214828730493653
-0.33028130356485597,0.4846924658814329,0.33590205934003253
0.15511872228453208,0.002054878025480147,-0.07219585381937568
-0.3081107947125416,0.6186023811438719,0.2961040377013284
0.11536987809232138,0.17843311061182812,-0.12252367182805173
0.3718043881000239,0.7265378744044102,0.03732075537114318
0.4093372344558931,0.07576002909084414,-0.356788755683507
-0.04053206898290928,0.1470387184686316,0.3753281091861705
0.03829239746170738,0.43185717558411507,0.3962138483030531
-0.43176960442198703,0.49355297945522736,-0.22972102235795658
-0.22251574865323223,0.4523178679800289,0.3819466870431299
-0.2770900853331931,0.46736346070012,0.36101343107273387
0.10218439885078658,0.8301897115378523,-0.19041947056349293
-0.0412349553500549,0.3646693377617263,-0.36303382222315966
-0.47684896638568386,0.21016679334411342,0.15140979080843542
0.24176479746460394,0.25099047238055694,-0.22678614047626167
0.11192585878595536,0.003906,0.14477152298920415
-0.021721296652631852,0.5971001481250756,-0.3033309007031615
-0.45479261726496584,0.21325389100397021,-0.07070897087542381
0.2352056617477043,0.47752000432068376,0.23424715680985808
0.08054797560854661,0.9286942541682807,0.16808889651726416
0.013280518102843105,0.5004111180186475,-0.2931788059182146
-0.08803215807978104,0.21832565514635663,0.3235652490654528
-0.3105249851057084,0.44814181592622987,-0.35983759632920137
0.10692256834504243,0.6043994998368519,0.4690457381889484
0.31587088419764203,0.16709315216746212,-0.08618733526257263
-0.22192520196317736,0.7928275727676974,-0.0011667586524051064
0.2936809324068586,0.6705565508295658,-0.15192803640693586
0.43244319661961195,0.14810616542873448,-0.3198670259642403
-0.02433555359153256,0.49836227692394025,-0.2748277771937187
0.18497889769740414,0.6789029028784517,0.3882532548297247
0.4123463850193604,0.01680873061443426,-0.1284749390676021
0.17886311236543273,0.019340600416847757,-0.20314690503911056
-0.030071824985038857,0.07063880381420413,0.19441627458135013
0.11458507255773592,0.7001312174863512,0.45484195630038016
0.24662193411871192,0.11919085914354453,-0.10388555610225904
-0.03172958563471593,0.3445579175004191,0.40114762048461833
0.06673515457696426,0.5563570229207988,0.4865677104772386
0.14337908799856508,0.9141817987542173,0.2312176436812196
0.05910530439504291,0.10588844836219861,0.06522830729468178
-0.05878184321831652,0.5836087249990591,0.418109775712179
-0.15756236825995779,0.21935014146717471,0.3927401057484221
0.20845971803162694,0.37948969363722573,-0.07401065048857014
-0.1875736144971245,0.11220725777275806,-0.45484591559563037
0.1607293604460728,0.2239325508883951,-0.31615460497821823
-0.07642803432758427,0.7642052944841349,0.35580554620836835
0.4242573287648508,0.10620256471583252,-0.3438177313283395
-0.46616701868680127,0.2582009048316771,0.09762700990477594
-0.023663287850216715,0.03985467010823708,0.13593031032055367
0.07222667214934674,0.5597265966907053,0.4711798257725025
-0.4759470079650772,0.2550249478978585,0.2292043362751408
0.22869168863497977,0.23832630743087677,-0.20800553318952775
-0.4094221417640612,0.590611539543715,-0.14870931948626193
-0.45065825852316305,0.4557158624363698,0.07814639415943388
-0.21090785012748942,0.8164533522656418,0.041628422965328295
0.21952251637150846,0.4432830994532031,0.26295224223443414
-0.16137035720814102,0.8572824309529787,0.061378237171954675
0.2823433948311591,0.7534926428089201,0.2978349896543939
0.312396012842856,0.4582146633045453,0.017053746025117465
0.06018486056799808,0.3552662167977714,-0.23005048616152424
-0.45972390564111687,0.3514548221953615,-0.23944970385805772
-0.2997525035749977,0.0,-0.04311895272755611
-0.11737143559625543,0.7803211159504594,-0.14971708836838546
-0.26943424013828154,0.0,-0.179998528693499
0.352822045710284,0.7405032134359186,0.07581442293109082
-0.45342096838476936,0.48793437018500363,-0.12075649933411393
0.24294352897819657,0.9348656207676237,-0.16550591199181142
0.00390089170812875,0.04426141399809577,-0.47977252097291007
-0.30908577287416694,0.6512880643563752,0.2710622000178986
0.21960222587692715,0.5669199214654648,-0.28698121014177597
-0.30486340776560544,0.20155538783339183,-0.37855145193600176
-0.0727975897194672,0.032405400993577534,0.4610138498124513
-0.3513395908518383,0.04734740385387953,-0.317140212132308
0.2865033877594809,0.7235923915314645,-0.1555662443701893
0.13537329827614816,0.003906,0.12069302637245556
0.2845750994157732,0.8620405788108609,0.08067188343376297
0.3126587038460731,0.5195048765506319,-0.10036660476339662
-0.13112049316507876,0.2417529853469325,0.35362347967839525
0.1827831874627691,0.03254127852439597,0.1383222085799187
-0.41647881127323916,0.17503357863628424,0.30564429632203516
0.10494268157406585,0.19318796016696604,-0.03752852101516173
-0.46689757263917114,0.14448484071188464,0.173331026787452
-0.451638485922583,0.4727855745944799,0.17787301126878555
-0.09455989037385698,0.6955335632731863,0.387962227027856
-0.11580728697429117,0.1792228913489319,0.2949851671149931
0.46963281416798863,0.1631811881770722,-0.19239677555037873
0.06419485260603564,0.4829062487437753,-0.29984049235084587
0.1563828111675391,0.7888754298102507,-0.24225602549261543
0.07795861381630043,0.1492249393967275,-0.47092549308420895
0.09877961458886436,0.8788672620052062,0.3075976876352747
0.2952501027794665,0.07093788755441852,-0.43173678930455617
0.017553420043085424,0.20931821877308507,-0.1992503412182225
0.31303288537930335,0.8243907619299382,0.12968282313108764
0.13413068188671873,0.3004100663927568,0.17927465600748013
-0.23509613507118396,0.09067682317831376,-0.4341211919711118
0.3130782907041662,0.6610404687347932,-0.024504520858452665
0.15282911158060736,0.0,-0.306162828776058
-0.13628754169514873,0.0035603742542699083,0.36636672153259225
0.2223533743305445,0.6582483498662115,0.34012669679226837
0.014848012905328022,0.0,-0.3978905586721708
-0.3496725813657213,0.04679981909718743,-0.3183666588443222
0.21570664054577043,0.9194786532036585,-0.19378299662042167
0.0732191461630286,0.6707118069731965,0.4600375670492726
-0.43282059319468247,0.2779075550603041,0.028829566832726423
-0.1292099561172293,0.38161220678253177,-0.37205872483026553
0.100437302236107,0.15479886741049187,0.07008093862103551
0.2653464967270807,0.1360869965457609,-0.06769033967284444
0.1446216610699124,0.5285195873862173,0.39461465618800107
-0.34348470264288566,0.4348966967340756,0.3360583680123896
-0.2741654094368753,0.0,-0.005888300025524852
-0.1480535978152059,0.04421551775712856,-0.10392563954314843
0.33191771155023364,0.5381166463544107,0.12889617689803312
-0.4043917001549302,0.15581827271063967,-0.263884839347556
0.036788885781980224,0.013727342604844693,-0.2893744181454199
-0.36324207185321983,0.009079742633330235,0.06257760438310259
0.23482145662020698,0.920296590749357,-0.12940022881307062
-0.15762050130445915,0.8521034262986711,0.13962272039993717
0.18360740829392164,0.8375559920747763,-0.22103680071864906
0.09202574248303262,0.9265581109101493,0.18092390024490246
0.20335376748726203,0.35346277379997487,-0.03422848726098912
0.17192445722993002,0.5872743841849366,-0.19779639871065635
0.030148997958985936,0.0799158970279743,0.15201445266972635
0.336493917325935,0.25238494566162806,-0.23886558212869757
0.2977715384237567,0.4722851221012226,0.2036933722645711
-0.19661196490590205,0.6551152312774945,-0.19483888240091068
0.046232160524258305,0.09426930420663601,0.32922897192580136
-0.038201739365058544,0.5667948431261871,-0.2825446569775105
-0.1238352472320775,0.8713524903043725,0.16660544435260383
-0.448153669027777,0.5040808113494307,-0.17319119609554295
0.2838323062873206,0.42157941015617356,0.04712408448737163
0.06774247164931205,0.8368487245072045,0.33472167600418823
0.32786563999871593,0.0,-0.33562611691186284
-0.04518449741991514,0.8307073279589486,-0.13719668411932362
0.13620398281317117,0.7425761136672729,-0.2625422742194623
0.28665854168996596,0.5861681733708484,-0.09912620228076945
-0.10755302166842375,0.1496322315027846,-0.47226851229856526
0.20058489516353012,0.33805659227832824,0.13348252048683992
0.12863882745574076,0.48888848014478437,-0.24725418768658897
0.3111765425781012,0.6671932261191356,0.22242720586588788
0.29502015368407186,0.5829514547216995,0.008745058579755738
-0.03246805700903546,0.007112320423747785,-0.30194032031359613
0.08224775392234043,0.7189823922900683,0.43507027056325126
-0.21324054483603527,0.28232681770170726,0.42473889631482303
0.10394560903249916,0.1841908243592993,-0.25439347729469214
0.08346982886786607,0.7088666080899284,-0.29031489271749766
0.24151439428287613,0.8034112300754588,-0.1577007134493995
0.4874017614491359,0.0859180308774889,-0.2080785278644804
0.30483876455906644,0.8096217151024854,0.20140393202867513
-0.07224585823656988,0.6316507790362875,0.4064517782369801
-0.12193161090665082,0.4846192932830931,0.40623702396396716
0.2072880963361717,0.012968420516426004,-0.20145715399311817
-0.1688287011816852,0.024735682081405357,-0.09068177181494937
-0.04218572757697687,0.31995958440945704,0.3991975860921578
-0.12453218302270173,0.2699871568988542,-0.43677513268416474
-0.08707794257533981,0.5921328729679813,-0.2496652190708142
-0.061635504312427564,0.16522770731597697,-0.17935207821837573
0.07908737215186105,0.9333091418170736,0.05425545350756417
0.29957055042308434,0.14393596886869908,-0.0727806761716525
-0.37747066173599014,0.598878530237327,-0.205758277443445
0.12098042483765223,0.003906,0.2307070342464606
-0.11571883195617697,0.014782970403743764,0.06913530551397572
-0.23157814062356927,0.0,0.10623565128178906
-0.09038973260745546,0.8547219280208329,-0.07855235637081194
0.15219858386637955,0.001953,0.002092736013870368
-0.09143929841964374,0.8937252048036615,0.030045711186889125
0.0921873817614837,0.7983526974626393,0.37276183144838637
-0.0355164507576581,0.047801413325730874,0.16630487522773227
0.06516930496847785,0.15102615809327574,-0.47206013189185025
-0.40827253119487644,0.09871884568653508,0.06080103669763225
0.3281094629781568,0.7296520991095465,-0.10542194543047398
0.22368536328790228,0.6263996113610947,-0.20569128484765206
0.34790737501898744,0.23984143275284156,-0.2873717849258647
-0.38497454642710777,0.46319398379640153,0.29412841891371977
-0.389080465760721,0.6300021960890589,-0.06319086308789337
-0.42412615166368267,0.5716666844890547,-0.026057409369190307
-0.1257958676955803,0.8702444585973961,0.15590335613982798
0.0965549828770303,0.24270925784252848,-0.28122476058830037
-0.4454832027741863,0.4995627901403095,-0.18773190836615827
0.025610308619204228,0.0,-0.4221475090492969
-0.03315214007839014,0.14408560917894284,0.33359479424803257
0.4346161266558777,0.18400030128847797,-0.26050349745726803
-0.24941098703379244,0.7706216454818999,0.08000434447317517
0.24677757425755947,0.47374516734003824,-0.06681321678285701
-0.29024182496576273,0.34871429821324684,0.3806155272334113
-0.11036300348129356,0.6372238370543012,-0.23428240495802344
-0.14072644111386487,0.3156988495657461,0.35664717124926554
0.35159849516598735,0.044294548388989725,-0.07012830020248592
-0.03875442247492914,0.0,0.315771073113935
-0.13019791325749924,0.3117360683171183,0.36106440826557906
0.18365480865942424,0.4198028369185519,-0.1467729094247521
0.36759243772211814,0.7002812346187813,0.1479688556942676
0.20442122290923678,0.16589271376057785,-0.14537741027484335
-0.3963030318911892,0.01637034210092734,-0.17336158977205696
0.3697386899333061,0.7248819791846001,-0.011934531886565552
-0.47093725325046204,0.33733186607690163,0.11939930051285268
0.28657533936461466,0.5666132685240727,0.2765670080323145
0.1271560575184544,0.09905987628779557,0.003936699792921362
0.39404807675937165,0.061950062638591874,-0.3671057160806901
0.18777135501537595,0.5108504474064655,0.2919116400158044
0.16829183910404813,0.927434292511365,0.09125266743654939
0.20125487051102792,0.707804471556417,0.3609669222657778
-0.12285352535327074,0.8848115238023778,0.06988139237151836
0.21923117034964343,0.7250211967046635,0.35087571669991957
0.09409987466481809,0.0,-0.41444085925931573
-0.41107812736172106,0.06595202902982868,0.22829313253644387
0.2549833555650011,0.4542971681059619,-0.05445300368022846
0.03822659242784566,0.7905765552265724,-0.21276114049116418
0.17512536065439965,0.21540795882647898,-0.21408950321104006
0.20813869047065928,0.3751694699757294,0.2171215321391235
0.1716015512878568,0.6221971087386771,0.39453848806592373
0.29197628610273296,0.4868823474750093,-0.08932981325626127
-0.38916666959513463,0.04774975009342923,0.01695684987292244
-0.2731981288154339,0.30737337340687576,0.41825667497541796
0.06355305302173817,0.2222547363610433,-0.36239560269254273
-0.02135198635903576,0.8873808093982931,0.23463260779960649
0.16980949716201882,0.5653401403062844,-0.19642022867298733
-0.40078740188657547,0.6072799908691153,-0.07011470748887416
0.2528171945482154,0.5155051442068957,0.28928812588818936
-0.14210543238722345,0.6820997905501383,0.3443032911652782
0.13315495298212204,0.017991676098812037,-0.24001199376152824
0.2956312960814246,0.5579488918191854,-0.16109750166648856
-0.11073141983471343,0.6141754745245382,-0.23364443532124535
-0.13169115967355766,0.14817229593459846,0.3551301437434499
-0.38284455871466266,0.009866230776659546,-0.14069153457234163
-0.1339686839935078,0.8489248681890477,0.21616775547396155
0.3771680778001393,0.17843896873302736,-0.3585776001246484
0.1557178107284984,0.5946953533219869,0.41084167317709364
0.15952607467056015,0.003906,0.16729031743025607
0.3206002214606581,0.2545082355611601,-0.2389993658575982
0.18526136458333337,0.5729978579304594,0.33086673548676326
-0.46608926990060806,0.33013398830821367,-0.07993407312018924
-0.07002593128433919,0.30324351175706815,-0.41537249633051576
0.2668829521048065,0.5900473910284499,0.3699435048525897
-0.42035591672674344,0.4910995564429069,-0.2616611534410518
0.12775784899844417,0.3128271540389718,-0.08883647810974375
0.18881163737564305,0.07016434537141233,0.20894161326466068
0.2860878746535698,0.4309995547703841,0.06526891393518769
-0.17028716051497958,0.14771238304575549,0.37348882665192573
0.019565905399293072,0.3611673850653153,-0.2620895514984775
-0.3849156978921717,0.38303961736445574,-0.34478346696965545
-0.08897730197149625,0.11812784091456993,-0.1953307771991876
0.37166915036876225,0.7270206530167803,0.10828390880254014
0.36671910691826587,0.015300219470804021,-0.09960299633171464
0.22641906757834218,0.6384452445292723,0.34556366673721095
-0.47595251509799774,0.19801382138327725,-0.019607160364689832
0.058465206935141734,0.11750591787246636,0.11753442446372431
-0.22720537885960196,0.0,0.06028635636341212
-0.15858258473253195,0.0,-0.2896157988722839
0.09946282819573815,0.09478836734904572,-0.21261020994158147
-0.02778555468629913,0.873492786894199,0.25432105255940407
0.13598395945647357,0.34720672566671384,0.2318906836035583
0.08392051157758118,0.9286155361308308,0.1702000798683955
0.03253235119585441,0.724936859581258,0.42174194543883875
0.29679204203145937,0.03245848638712,-0.0995068287921338
-0.09142529357946691,0.2231356587253449,-0.44341386681951084
0.20595244906988122,0.5329239034324544,0.3086968197029994
0.12677200409573158,0.9130052126359202,0.28807525299762465
0.22726474450377443,0.39564758807061223,-0.07262203972293554
-0.17240830605012047,0.00031212063245226193,0.1942465076131336
-0.04017672390358454,0.8236774503065649,0.3245047055511637
-0.3892424960707137,0.07418943453349568,0.2747840278888517
0.06323320971506173,0.43720135999985815,0.3929377365797691
0.2628334247937393,0.05603440608871152,-0.10563399257372415
0.2702488281677581,0.0417527946213133,-0.10778689102866272
0.17605543639632154,0.08303604086991366,0.19988537167493003
0.17393149660912158,0.921178716864845,0.18663438844503252
-0.07709487209196779,0.0,-0.3651041698150033
-0.4660373183157145,0.3998807153188634,-0.06290674829248591
-0.419018580808201,0.5760402400012283,-0.06514632214228604
-0.05754036690518738,0.17588475641769605,0.31638535876900353
-0.348498071746762,0.3267684052837492,0.37483747943568957
-0.3613920292568924,0.03902474406918484,-0.2921348394637136
-0.4748176007670941,0.3019173176341351,0.12517595713308768
0.028895969691446196,0.0026433752458677427,0.40168905869805954
0.2963947764278743,0.4588020748960214,0.09760283567455065
-0.28531533722431296,0.13731612662642723,0.41194785740623013
0.43311452429932884,0.06695045527105363,-0.09411085654980672
-0.05025295362914538,0.9061821852547474,0.1607474575791783
-0.21813953463736627,0.5453164104327529,0.37659447776946414
0.12179662816393053,0.07720218223196132,0.2611659883483226
-0.09535139503933979,0.0005685510037998619,-0.41081628234376
-0.06631036864123162,0.012817275074180911,-0.2870489491693331
0.18096935803487463,0.10726635321062188,-0.1515108985919491
-0.42156643143673733,0.17719402508083507,0.2999439336651858
-0.3180863480394844,0.6093906964545277,0.29429261144387586
0.3071545890184948,0.5236829521419502,-0.0896759671171323
0.31328778779661737,0.10113708325690343,-0.0480453656113812
0.05383561486190451,0.812383769312516,-0.19557052140215475
-0.13956581976458032,0.4116748062976475,0.4000798985692754
0.24372083486906432,0.8848047356341168,0.21701947204925642
-0.28258667119965725,0.0,-0.14834364899815242
0.20720674190537935,0.8952771356099488,-0.17428699645713552
0.39401814727336537,0.24105684710504607,-0.2821594786816435
0.09466706755773693,0.001953,-0.10059687609547438
-0.456840983821939,0.44981372917153695,0.005949304809635403
0.03226455059914122,0.0,-0.4233930996379173
0.2590426913475144,0.6408020381176925,-0.12607666646013602
0.2515541500906028,0.47230901802671904,-0.06791768306385723
-0.35332434999641965,0.40347487555018885,-0.3617077528847746
-0.3574967705804276,0.6165951582721978,0.2309440533308293
0.29020725957615284,0.25895323170469786,-0.26351690936519695
-0.025028867159183225,0.12800987138592973,0.297786344711735
0.2506519163659998,0.6342845003401959,-0.13426565881035746
0.18652343373899968,0.8384798404992022,-0.2124129144115312
0.00796241285942979,0.08502606025999443,0.27016389110084643
0.057780690580101254,0.7608553141224734,-0.24155679497000504
0.20396463305693638,0.4148439557845385,-0.12115648584024837
-0.40336348759525165,0.031540711367480795,0.14059524576507093
0.11569809595029631,0.8930333901129991,-0.15678768841263566
0.17089572960565366,0.4055150652090886,-0.1495200359683081
0.3465694398755551,0.609150918469141,0.06026657260789847
-0.20921331471336593,0.014507584556060858,0.38629001521324585
0.151778953899466,0.27097642672735195,0.12377027527759843
0.1723782062425886,0.026466373683330303,0.11469230999235278
-0.009579358527899018,0.0,0.40946949560214696
-0.023651869418224607,0.8943454545773841,-0.047343561742525415
0.28634468812451824,0.483212820831196,0.23350900096172475
0.3708842174147841,0.021622181700688057,-0.09192577261343397
-0.4314984446158419,0.222325737653209,-0.19650020072383312
0.23341080501584668,0.23473792802280366,-0.34650173851240945
0.19236997996134098,0.21042282064318396,-0.3741658969902682
0.3190398900778108,0.2063765863928854,-0.37028943347260473
0.26116948121460354,0.16052759522789056,-0.4271118633116587
-0.47435844449600945,0.183487020697217,0.021585524412562753
-0.43087612906787,0.34184711392339523,0.29213241318010913
-0.14248536047189334,0.01726818054961191,0.00491291090935859
0.4822296041913582,0.10044380432364358,-0.24898790378335675
0.24227988157267843,0.42120471570074725,-0.02061204324556354
0.13666449397919095,0.8793414597666209,-0.21115392503766167
-0.1049701982383861,0.7001948562787517,-0.22094165655254344
