x,y,z
0.022461,0.5370404616797241,0.02543615924274395
0.2946055772364222,0.050781,0.12585154165651607
0.0970689560403439,0.117188,-0.16327764564614217
-0.028295353141858756,0.08739651998563822,0.28350826625403475
-0.04803963014070081,0.5972844868451327,-0.3102244527846095
-0.135742,0.2139356545057865,-0.14484057533421085
0.2151213120808735,0.05925264181375535,-0.3818824319545092
0.03416863904331366,0.16821561681851668,-0.2986480454329944
0.1004509350349676,0.5509048964725913,0.2932758877600743
-0.27815349641840115,0.0,-0.09997901501206932
-0.07303361411191647,0.09155132689183361,-0.4013407098491228
0.34346597036313936,0.041353736105140385,-0.17847118043247265
0.2814347858555894,0.050781,0.01634826638513809
0.022461,0.2460338210116063,-0.02871802707379481
-0.02566008507084439,0.12272099788610347,0.3738548792674644
0.12640095470725968,0.0,-0.29011427156988806
0.20160877300215713,0.050781,-0.07380649139441206
0.10817687568245309,0.042984975021377325,-0.3145026027546454
-0.3123836634014805,0.04406202466563004,0.09772601723886136
0.053711,0.21109447350789295,-0.17184059984709998
-0.135742,0.5674432907146657,-0.14885411883801242
-0.026424133795196772,0.14699822433826795,-0.29922159957684796
-0.12771237745471348,0.6734502691239691,-0.3225321359738352
-0.135742,0.6724160854860863,0.1311190842758816
-0.08905119336888168,0.7982401533651148,-0.20674277798400376
-0.135742,0.5850935937352016,0.028670294647741845
-0.135742,0.2792110984586703,-0.06830222528981961
-0.135742,0.17381763106997197,-0.21228840778672997
-0.09691163034914925,0.869139381022334,0.0993277960758681
-3.4220146156963005e-05,0.156299930742163,-0.298079673300941
0.110352,0.2046803205062213,-0.28751607586121347
-0.32701614100335696,0.04548420850043256,0.10700414774368541
0.053711,0.25790411843598454,0.16413261741811994
-0.13629332737363367,0.632954786349659,0.2907595224275265
0.022461,0.7281574852616977,0.08481271571702924
-0.135742,0.37859969178293446,0.19973467929750202
-0.135742,0.5674734569514218,-0.3001098840952367
0.0003092375603616082,0.18645183694898088,-0.2982821235995447
0.35493914197287507,0.0,-0.17908814484869057
-0.135742,0.18091539901362935,-0.08712574382188848
0.022461,0.6261452499558186,-0.04474378094786462
-0.31470361054529716,0.0,0.35101760049799047
-0.135742,0.5049389593439274,-0.24213701455139938
-0.2809580586959334,0.0,0.25104973907821093
0.04621203954785555,0.6075129003614411,-0.16652334496758278
-0.135742,0.3370129325680729,0.2117308128039977
-0.13268192415385394,0.7060230488910674,-0.17030695149464864
-0.135742,0.19261667663947007,-0.15412974367307702
0.06245835381670184,0.4723738431450796,-0.29953184800935545
-0.20368791264859035,0.004460489918468634,0.3928123972956878
0.03319195065265677,0.39174677615924886,-0.2995515079558279
0.01975449341533845,0.21949351198048161,0.365018553378218
-0.3254721120394626,0.050781,0.12193466745763515
0.022461,0.7003030380885874,-0.06876672651663687
0.04604322299340885,0.1780352542006538,-0.16651279460819607
0.04175291142971041,0.5224761035752921,-0.300892833422922
0.050087466487049606,0.117188,-0.02398855606986261
0.022461,0.18912993166694442,0.12020342712963741
0.2705501134406792,0.0,0.29498350908217325
0.110352,0.4011944079512295,-0.20155141667238913
0.17417787532113058,0.117188,0.14052268777301563
0.01692038775393921,0.5801143803125458,-0.37789890412221616
-0.135742,0.16162344021869332,0.01616848872513038
-0.135742,0.6546098895239861,0.2706282263405305
0.3726012536336574,0.0,-0.08515121715489266
-0.135742,0.22916023335246694,-0.26877427779211244
-0.135742,0.40516857889375607,-0.11435636056841976
0.2740441686385452,0.0,0.1927260590239968
0.29736790932498325,0.0032287050402304784,0.241211
-0.135742,0.16657628918984843,0.055005719467600106
-0.135742,0.3040461064701967,-0.14192637339921813
-0.07427852142748366,0.28450005015007207,-0.30355204273416664
0.059338499587701765,0.16223878662382765,-0.29904558263711495
-0.048624168928494,0.778860503267143,0.21387024177663558
0.053711,0.6568757719919238,0.14917358429946537
-0.07676400779244019,0.13386374914700058,0.4301038856866981
0.06635531809483582,0.505828432114148,0.28405561190757317
0.151367,0.1028648789128036,0.2874296940849159
-0.16766516663312556,0.04932043542345149,-0.18572115888843668
-0.030309382323600836,0.6355198629920153,0.3502349612040931
0.2290868040260491,0.050781,-0.0525542846539488
0.11969447333669474,0.37050431157684716,0.25144846950967553
-0.07704657061894621,0.09512103891456172,-0.3759041908202658
-0.11109207765181674,0.04225495129817922,-0.3680752712825094
-0.07027785712926049,0.5251826909056508,0.28281519150225976
-0.028640589940984562,0.8377923538309403,0.2095901639908947
-0.135742,0.09023385283503152,-0.27831150071621436
0.07999046500197746,0.7943629443813146,-0.04932742196883994
0.10128138098096584,0.7994751863171439,-0.04369002281734139
-0.2383713879647887,0.07831339591876407,0.37158088901418085
-0.15367536207017565,0.17799745474950454,0.3996700491179882
0.0733641458861678,0.3251699544048449,-0.3623323621014506
-0.050268190963214235,0.8244535825395553,0.2176292139035972
0.022461,0.43146986330487236,-0.0010299365755772338
-0.22615615277439674,0.0,-0.21258899348843052
-0.017658262662289988,0.8444806714215298,0.18611922321807398
0.022461,0.3658366326190816,-0.11605216380008435
0.110352,0.15623238837032422,-0.26477108626220647
0.04525582196116726,0.1442916666171389,-0.29879322989971013
-0.2530877689885205,0.0,0.30022913088428177
0.110352,0.7649250575362729,-0.13801159315069528
0.022461,0.2965123773685941,0.004810898185019036
-0.09189627922505655,0.8916965613923051,0.05655268537835341
-0.1001233834743486,0.8231152791120947,0.1697411016608405
0.21412003883746106,0.019254512920788315,-0.249023
0.05113413322338818,0.4407758059835159,0.15315895613392888
-0.14660922978193314,0.06289642938551263,-0.15863100442329056
0.022461,0.15034924311624653,0.061536499846340284
0.110352,0.1283632802732137,-0.22922117239323375
0.11290516184496063,0.0733773236295952,-0.39187164725919044
0.06969209994951353,0.4482398746334504,0.34002379197990784
0.02661191313608307,0.7842135250312318,-0.25856156380412126
0.03695785171982166,0.5650093495636282,0.15227299524508198
0.06975415018561355,0.32836672908462794,0.17672421105184447
0.03622882489551958,0.1328846812474524,0.1522274339846704
0.10134967791895316,0.117188,0.0001458342863485118
-0.135742,0.2714171267468618,-0.25142647212248215
-0.135742,0.16623686197679813,-0.3022820647993095
0.12140067764087284,0.5512556850094968,0.26189749398839074
0.07536505092101468,0.08948605396720982,-0.3158028477393956
-0.12409711900447372,0.2602472989744609,0.2813523053032106
-0.07283031952443786,0.0,0.4451016483272964
-0.09844531961405077,0.0,0.3734112531520239
-0.135742,0.2261607706576344,-0.04364783027556385
-0.13882882524200463,0.4165516070294626,0.36238285137564696
-0.15983157920480173,0.2489415420768159,0.3527171846422562
0.09401471624129647,0.6668980519539512,-0.18439414698695425
-0.15287407327314678,0.788859058224098,-0.21410702012645066
0.09076703800686972,0.768118430390785,-0.10313589146092642
-0.15760471687248326,0.3897804516319492,0.38602923675268486
-0.135742,0.12065851715844281,-0.08144619155542468
-0.135742,0.16206690044538483,-0.08777183593287055
-0.13125754941116566,0.633914875618585,0.2953373820645287
0.07867993891448635,0.2730933303585549,0.2840013691796075
-0.07217438374948676,0.8085882023949245,-0.1960541875348415
-0.135742,0.13556789386048645,-0.12156554547848195
-0.3552243067975235,0.0,0.2878703911190603
0.007768194388181521,0.38222164826342087,-0.3005216347825801
0.022461,0.37616561161956724,-0.05999883511920945
-0.14419228599338405,0.037106578189640374,-0.3342720452352646
0.03591867350067611,0.36552138879352325,0.33536062275106876
-0.20862338868318547,0.04170401196579667,0.2399664555066716
-0.25337724639044124,0.0050888085706693635,0.3633273992327879
0.06302970729661753,0.845703,0.13871929519874104
-0.135742,0.3317611294809309,-0.25791649424777097
0.08370697595676535,0.7453648106819224,0.11413845663126555
-0.135742,0.39713127560270994,-0.028176823092588163
-0.1341278659398933,0.8417768540478907,0.1300904687107911
0.12484290076322162,0.4874258511770088,-0.28309145515125356
0.039623383290747466,0.6553897117575129,0.14308254927890346
-0.3189615493410764,0.0,0.004689519697314154
0.05259305621525359,0.2394767537090441,-0.16692213298522848
-0.03792338688359265,0.0,0.3887893818095657
0.12577693835999043,0.6018620796568889,0.2805282787858517
-0.135742,0.6602436088343782,0.11822411518478099
0.022461,0.3965502371456108,0.10928481344446234
0.28170915165191973,0.0,0.3490188010661719
-0.16091103501329296,0.10246664421262018,0.38394920156014006
0.02819628791517973,0.0,0.33911629144561867
0.10085894585010208,0.2737486865162088,0.2810756780705509
-0.01037597543340706,0.6400777134260315,-0.34289482111592234
-0.07991338315025251,0.05338226121110018,0.4163147519045256
-0.135742,0.15303273871114637,-0.0687585997932772
-0.10791517945387386,0.5863502486246736,-0.3081728397565443
-0.11693406117422658,0.8892726080234638,0.1097754021555803
0.07790790298813297,0.7952958179451988,-0.046671974153289816
0.110352,0.3498831063970662,0.21868781647906116
0.151367,0.08813587736064582,0.2610748076667045
-0.135742,0.6856354153927368,-0.23276040038194248
0.163086,0.09730600263580336,-0.2907630175036303
0.110352,0.773951987156276,0.11237942166518214
-0.135742,0.5435797515241032,-0.2811938647228759
0.3232306483644461,0.0,0.19113141461030914
-0.05321316492395613,0.9202726045731499,0.012563780921144616
-0.135742,0.08079864841901546,-0.2716058647262607
0.024824031641337667,0.08313672664235076,-0.31497032673812125
0.02476974749582074,0.48230055752473383,0.283656920181434
0.151367,0.09852494906428585,0.29334499557034516
0.151367,0.059932416906963326,0.20088757308625543
0.022461,0.5195796399774575,0.0648936328162068
0.09599070667451752,0.4249373276156261,-0.299805
-0.21784994856561127,0.050781,-0.06765996205807139
0.022461,0.12008550318410609,-0.01762682403381957
-0.135742,0.7576302870305155,0.06077603440066795
0.11086575710819205,0.117188,-0.04467244448678917
0.022461,0.33416363197620697,-0.005423644906723424
-0.135742,0.3535066745077545,0.19097968008116303
0.110352,0.37897737467358406,-0.24421067418424985
-0.135742,0.2765662031138109,-0.13267288321429094
0.06806701563312971,0.25537838124936535,-0.38120291541593926
0.110352,0.28448465055700867,-0.29889353114284983
-0.15118799213510076,0.06428310109336473,0.3557401368107511
0.07442717500722937,0.5128408447470745,-0.1927628024882102
-0.16827149143732256,0.032320132929124064,-0.2275589358664282
0.04697000691068924,0.22947087125057397,0.15289871489589044
-0.135742,0.15418111793206418,0.17782524672592853
-0.03314926919142876,0.7776455073922941,-0.2937376262148222
-0.13426270906039348,0.7003055446469857,-0.06193071595218566
-0.14868560377198908,0.32720969939853495,0.360930416686806
-0.13864335169915576,0.0467915160157907,0.4414826482001236
0.022461,0.48402644614047513,0.011264189253259976
-0.135742,0.18720103021992177,0.1258153646756176
-0.1343096533734497,0.8465638273554793,-0.11054194205577428
-0.22962455627998996,0.004979803312579764,0.24031693709508178
0.07104730934345829,0.7967862043180196,-0.041584325568457675
0.022461,0.40022285426606086,0.01930218162407002
-0.16364500486666192,0.36886621394012337,0.409690861859431
0.18653084447799856,0.005368772473121364,-0.249023
-0.20578456587263208,0.050781,0.0028962839664656084
-0.135742,0.6145235059423683,-0.149209712967589
0.2647523590025319,0.050781,-0.10454825266001527
-0.2852538009842238,0.050781,0.14508772408261367
0.006222843541207919,0.14529382947182437,-0.38305375128672375
-0.15789636112357477,0.050781,-0.07307181960248878
-0.135742,0.26326797619518905,0.21776616495377096
-0.13475669545265323,0.406639814146485,-0.30885720482226714
0.015478448285686687,0.0,0.45021170293231155
-0.24111422231194313,0.050781,0.19973678045376214
-0.01816295339732782,0.6457473029039403,0.27361325648697593
0.110352,0.34202447439358,-0.2989194900030944
0.105067128250074,0.7938980644038819,0.04629425598116941
0.07037052503977238,0.30756370119637033,-0.19192355487043047
0.08146813386807583,0.15506842443652447,-0.3788501366685639
-0.010399324558802934,0.6833944723668263,0.35992421297516075
-0.009502687478827284,0.05096705562201713,-0.4274416699123466
0.09456799234831752,0.594953323364022,-0.18227883317578558
-0.13418500381757303,0.8836341228621157,0.053138077863961325
0.110352,0.25313309152206553,-0.26183773587997455
0.12968564274207534,0.117188,-0.11632334233521563
-0.135742,0.3516942464410194,0.11731590998394487
0.110352,0.7974377356782208,0.12735044641583682
0.3212791483851177,0.050781,0.1691026681837942
0.28791602442323055,0.050781,-0.23001433440534252
0.02151360141660278,0.29050794384125694,-0.2987301515195064
0.053711,0.5641856082977335,-0.17235117583522494
0.3582178981961539,0.0,0.157111742135695
-0.08455884921535127,0.20701805672145826,-0.3041348826572949
0.030278678907842516,0.06479763681652947,0.4354319841964383
-0.135742,0.26780476977747236,-0.29718062569609616
0.107784531445936,0.7681002361020686,-0.23471043462011867
-0.21467371321071776,0.050781,0.06606696349982139
-0.17135756449114964,0.554243776780977,0.33057207565690666
0.273256405587935,0.0,-0.30992447515379623
-0.056214774779642825,0.9052233411057659,0.09630415827223197
-0.30785202165836706,0.02650753840600472,-0.05920778793590745
-0.019861876366047443,0.8859775091782308,-0.08604748083690084
-0.1470597605325502,0.02252445717048575,0.47918262152096
0.06282568714636394,0.117188,-0.03511545183628223
-0.135742,0.6357004221623759,-0.08581773915150304
-0.11577942300243949,0.8250331154443832,-0.18173330808370464
-0.004869801802181661,0.12523962796065902,0.28235982961558864
0.29263710742836757,0.050781,0.19423256438280675
-0.09439312769993213,0.3150797985753736,-0.3052838962611276
0.026010905716815677,0.0,0.3803651638009155
0.06449628948503645,0.5958014221487472,0.16454351995559277
0.022461,0.13314347888131559,-0.0280607462548198
0.151367,0.057029536863327235,0.2699738305594867
0.12111543543876022,0.117188,-0.3016364740555422
0.04185208349262646,0.0682376062925164,-0.44700994038192254
0.10200884056132142,0.4111105586339862,-0.299805
0.13150268982867708,0.117188,0.2918580344180114
0.110352,0.23796360398544403,-0.24675280438132524
-0.135742,0.491995586285355,-0.18688364501062427
0.0961740105724953,0.0,-0.43742467484657316
0.11783199694994104,0.07075504640439553,-0.3156272926425384
-0.25731954043994865,0.050781,-0.16638073363611408
0.08678899988906451,0.06561897463224449,0.3635570320755944
0.051036784023979126,0.13625125358969375,0.1531528721983626
0.110352,0.15135935129298128,-0.21678498871078905
0.013382612077929554,0.0,0.28711817769910086
-0.135742,0.7467766728051506,0.039800797094775714
0.338867,0.019776192709143228,0.21483194190168656
0.044176495041568356,0.5731116871493248,-0.16639613157811786
-0.135742,0.6599122962315664,-0.25828210047946615
-0.04543364048023485,0.734340949002276,-0.2564583563533747
-0.11214776178007628,0.0,-0.4100766922995267
0.3815838185121928,0.0,-0.02930321417698698
0.0836371618296262,0.36307783096490576,-0.1946681824353306
-0.135742,0.09460227952655062,-0.002410892981459606
-0.135742,0.4765946104004332,0.21935707038771277
0.015135775879369009,0.5810751940771762,-0.37622887555709067
-0.04568588992683166,0.01933278784857752,-0.3081757353861568
0.0750933602644323,0.3912286353878768,-0.4275206946574022
0.3403334543814789,0.0,0.1977672076577741
0.004506388769403499,0.11918994988177173,-0.29810073959319905
-0.21854543331241869,0.021954247650667155,-0.21026081505469765
-0.135742,0.13073726316726905,-0.20175401446279817
-0.1715212451527139,0.07208865947064268,-0.3501925855921265
-0.12641845617948178,0.8464954786692568,0.15040564073981005
-0.1649105343930353,0.46866049313633235,0.308879172028474
0.053711,0.2086015711292195,0.16741873126524137
-0.1647871055387945,0.050781,0.227282193308285
-0.08766120243392575,0.5713424830143478,-0.30710442516711056
-0.08532495643283473,0.5932282435701431,-0.3099462221546264
0.08799344116510527,0.857682386179868,0.12161434192144543
-0.059407729242147475,0.8517485659599956,0.12982591254663356
-0.1022186319961399,0.07570973355365379,-0.3051419163251336
-0.12175054834899364,0.6993826252083248,0.25769761823649534
-0.035220915519581245,0.8612258799636976,0.11367840054768402
0.3193945710216291,0.033962137359796966,-0.249023
0.29081087040803644,0.020337051580352532,-0.249023
-0.135742,0.7433705934036381,0.03376802202255272
-0.18751823522529823,0.0,-0.27008204250794793
0.07774626489744428,0.3385332878089031,-0.3317905939572348
0.036667577044385904,0.117188,0.105044337294517
0.110352,0.7068992650228454,0.18883724565441562
0.110352,0.4509627378030653,-0.2967084705334807
-0.11268361897865113,0.0,0.27632031923285844
0.052015389207732216,0.3220488651238071,-0.36589819985728095
-0.04040856941040083,0.8968475984888615,-0.063477
-0.14576574348488858,0.059846892014585665,-0.1034334179026301
0.023260375374562364,0.11395317790581594,-0.42373269758900145
0.10029440431448021,0.4173071651986767,0.2723415327702882
-0.135742,0.3917477648039841,0.26590986045304355
-0.38533159313468435,0.0,-0.0812070589124355
0.09430856646834884,0.5644216901415692,-0.33719097961114874
-0.16163915687716934,0.4908501605077023,0.30682185879968504
0.053711,0.40645678659953083,0.17280189989369701
-0.09152337539651281,0.5653635202212678,-0.30719252036048905
0.01783446656766302,0.4920151190817995,0.2836002387562091
-0.135742,0.2626431457675445,-0.2434279952422717
0.11878014512806817,0.6123568217386623,-0.2426909359020106
0.05987995781706709,0.59775297086993,0.2968652885124553
-0.09596725784332409,0.10687039819997972,-0.365761053479365
0.022461,0.661489348791219,0.08286967636216536
0.022461,0.7267011092952415,-0.01180697142548355
0.12171623607891605,0.24195618942684935,-0.2869591354828027
-0.009867765572388096,0.8909993152987431,-0.063477
0.06309232169776376,0.3573826045998548,0.3066513534527258
0.10073100125429157,0.787877756148155,0.060337939027373916
-0.1192255832600509,0.8840296207494435,0.1202914279797295
0.07601006718297068,0.33327907591051564,-0.37798811789176157
-0.2555315677218941,0.023462973728150923,0.24007021929333786
-0.1433680417431179,0.12972502076271628,0.34740564813124725
0.10857852561375686,0.27787983243880005,0.1860949502068408
0.022461,0.6227775739712968,0.13483525465330332
0.08067022396740889,0.7552360132000522,-0.11586886675718713
0.011344156371551048,0.46678797865070154,0.2835225116496405
-0.135742,0.46213208450829396,-0.00043973463561443327
-0.17094461201473257,0.0018357761746852273,0.3342819413231463
0.053711,0.790154426602555,0.01455763499771834
-0.17247563503758945,0.0,0.41156009714948455
-0.135742,0.17593510736294876,-0.2256789627353669
0.3871492535301205,0.0,0.2132071826737923
-0.135742,0.6156500164350076,0.1970606659367905
-0.15622300124736418,0.8882161158527068,-0.12122822632298728
0.110352,0.45444000020872644,0.21558172067568965
0.11977466996359376,0.23311212334965226,-0.3220140087754611
-0.135742,0.44134536588433715,-0.23351685186755228
0.110352,0.30535771495860675,0.22256215522302106
0.04460857973132522,0.31624504780626855,-0.29902450141923337
-0.25248355322840643,0.0,0.1673471223267086
-0.23965822185332292,0.050781,-0.15027121858742853
-0.23707976814529141,0.046249700890935,0.2359996423001349
0.053711,0.6502097339921024,0.16036482886005454
-0.05756648342164332,0.8439220284558144,0.14521371207111697
0.07081988595177274,0.5087092252374379,-0.19201651952795454
0.08212003249347177,0.4520982342329356,-0.299805
-0.00041570212227977354,0.6501565519194904,0.27270879663469466
0.057012316770881026,0.0,0.4165238608530013
0.15344743548744447,0.117188,0.006646658262481342
0.016703104603481705,0.8836338507777893,0.07153202065558936
-0.1389848369213856,0.07000439867550633,0.4097211115412242
0.081990477331042,0.117188,0.07999819728441135
-0.13502045465196383,0.6554148679612852,-0.3316919328926065
0.022461,0.3686084512187682,0.09704759974998799
-0.13269061147037148,0.8021266054984468,-0.10955840269613873
-0.13780098122920398,0.6313207218297294,0.2962448263955504
0.110352,0.28615703336485687,0.2142054043978166
-0.2729339014353116,0.0,-0.3646970761516167
0.3112364184343199,0.050781,-0.18295851837399196
-0.039879309986179313,0.0,0.3629988445026138
0.22872925169870278,0.0,0.25147651056088965
0.0809380799518975,0.37411228361213283,-0.4154096582985473
0.3198800161661648,0.0,0.19736968405101218
-0.135742,0.44513860331528454,0.06309446977630448
0.15050106682152403,0.117188,-0.14794737109724648
0.028248323171004466,0.6982648393941692,0.12051622953331802
0.06284031655146458,0.722644222557129,0.24934616547318514
-0.03672127176559439,0.29159295982762634,-0.30125186698098017
-0.03722048610437295,0.7640042919823807,-0.23725659115156017
0.11980812046175492,0.3599783070642347,-0.288066648478544
-0.135742,0.2727502759525157,0.032076883407332404
-0.135742,0.41720866313961397,-0.2784868413710711
0.022461,0.5298207695794472,0.037962425763569646
-0.3199325398819664,0.0,-0.143503360278899
-0.135742,0.5729520796494331,-0.28526514715586077
0.028513151176604502,0.6571817985085615,0.31130850969446816
0.05780945691631322,0.37020054850049666,-0.1893248967204915
0.110352,0.26421368287462627,0.26596264898481814
0.14317826034444178,0.0991688662469198,-0.3169621779650448
0.17242741586780072,0.007907444573684246,-0.249023
0.02021884305566163,0.7161972894680745,-0.2670197817062775
0.110352,0.7179489110857148,0.17884466887642148
-0.07660647993024958,0.590206028859702,0.3848505977844615
0.198242,0.09236993190034586,-0.12561650062063784
0.16131073824763384,0.117188,0.12345998993944292
0.04786838546235568,0.127953585334679,0.34399470418607914
0.022461,0.6655860398732057,0.08952534035947413
-0.02331279186924011,0.0,0.34216560802605844
-0.09635485104482612,0.6070668406875237,-0.30620337834249467
-0.135742,0.5297395402004232,-0.040189717509303474
-0.13892650233731596,0.29353994881654566,0.3130439436844159
0.1227593518495445,0.43981130391088263,0.2338548082958823
0.198242,0.08982726905235783,-0.1264896738812646
-0.135742,0.7626973376290547,-0.033067702408427435
-0.135742,0.36456965020656185,0.19153568701475387
0.110352,0.3051421918780413,0.2557560187472189
-0.37093777272380896,0.0,-0.005024455461508315
-0.011000095897566231,0.08145691747506016,0.3883436332468433
0.022461,0.7076400746584994,-0.04039868056898055
-0.12417129743993696,0.7690276394802371,-0.23458354826786743
-0.135742,0.7768833835399255,-0.012219650890010342
0.1609526713370857,0.117188,-0.15916430948634147
0.10213840496102519,0.7441871860255601,0.11944051292177399
-0.07452732185015493,0.6638518714551187,0.2698995049298137
-0.135742,0.672894465342119,-0.12578010737558637
-0.12173370899013551,0.738986901502328,0.26324862998832704
-0.135742,0.4656219128798495,0.2735665388040373
-0.010224957612616103,0.1958856915807104,-0.2988591089083543
-0.05752842516615775,0.5192753858581196,-0.3051259023255764
-0.135742,0.46237920425262785,0.02754706433470383
-0.016477825521649243,0.052181766806475696,-0.41685893992098616
0.13491830935305565,0.350427155052979,-0.2998245350167892
-0.04812211173644583,0.5380526679188132,-0.3049664861784182
-0.135742,0.5543829414197894,-0.2891781324229703
-0.09108266908484276,0.7399720539654052,0.23872572476495638
-0.135742,0.6343462604575559,0.10046622778982783
-0.18673103878778885,0.5177870445525433,0.3148106259617787
0.06433079028633118,0.0,0.36837081134171323
0.05816729494276856,0.6517567560706019,-0.28596135602349126
-0.135742,0.23145535514731985,-0.13518613884031072
-0.135742,0.06179528519910725,-0.22888446074140212
-0.135742,0.26082521131970887,0.19229210633629346
-0.3338695118911961,0.0,0.2314285824197791
0.151367,0.008452905052100765,0.27854531644911834
0.16938230942774973,0.0398791975667158,0.3491597783624124
0.0897284137370547,0.27104189727410716,-0.2996886517527233
-0.135742,0.5682100600850732,0.005719586735042026
-0.135742,0.3543100462225562,-0.06640897160116525
-0.135742,0.665272187184323,-0.1402615021144482
-0.135742,0.49160274209429605,0.03280949934669569
-0.135742,0.14597695556551926,0.1407051999059371
0.08118892897624172,0.0,0.32631596662278184
0.022461,0.4338034171121639,-0.075692499544706
-0.07404591002265509,0.7416931792818593,0.23767082591788533
0.07162337570901772,0.42719950948550683,-0.29961616083734677
-0.2764148180395322,0.0,-0.3641505543415048
0.022461,0.340335613532068,-0.08333816194391461
0.03341374765477606,0.45228545085302857,0.32404024246988644
0.151367,0.06386832197841831,0.26133655669603867
-0.20921184060337142,0.05890150349741224,0.3206535221086238
0.09654840997665454,0.7917686962436843,-0.06108919658842608
0.2948222069170727,0.050781,-0.18217499423458614
0.07992509776059202,0.08624195410521335,0.37959676942406384
0.030155618767046602,0.6476148684680644,0.31034841812019826
0.06502313578882776,0.7947477387378866,-0.04485726825375272
-0.12939107971361047,0.8497124273491107,0.029745037930790308
-0.20105550321513102,0.0,0.2542157780254469
0.017473495809487455,0.07340388458418745,0.3002641692577885
0.022461,0.4632063665902034,-0.04767535276322857
-0.004815758218794014,0.877361302329413,-0.10434442685404467
0.029078284953753544,0.04375034505039545,-0.42330207018563226
0.08376825794204008,0.2827162423815108,0.3631630389521342
0.053711,0.22729480023880827,-0.17624549858334695
0.2383122132060751,0.050781,-0.011905757686063778
-0.135742,0.541022024458456,0.24023869478640916
-0.008920163478458816,0.8342003367368647,-0.22941173388100733
0.34338647628073,0.0,0.262103590391444
0.30407290397725,0.0,0.25366669953989907
-0.135742,0.396095157150437,-0.1891449695754366
0.18478111082836912,0.117188,-0.07062942320090176
0.33827046444762593,0.041612535552374035,0.2264058590369725
0.022461,0.6916269251099412,-0.028007513848295168
0.3126608599268273,0.047109782321099,0.0723210456884755
0.08638177998295399,0.117188,-0.0030045289468514924
-0.10959851343356092,0.8097074304116174,0.18538129929310954
-0.07639849225018952,0.6781922795724621,0.2669578875791666
0.15303926483533228,0.0,0.37069070559856315
0.08976570251857134,0.19826428851715158,-0.3217523702693284
-0.019387291153118012,0.05017076971000057,-0.4469859666058214
-0.135742,0.4303229304542021,0.01754403648256478
-0.02446952356860195,0.8589017819100844,-0.14084222995482285
0.09902460101788083,0.6433944606812506,0.2740958899970522
-0.20892751480264235,0.0781997274749792,0.3812566736924341
-0.10022544962762414,0.25057055834422826,-0.3055478364529944
0.022461,0.21244698242922438,-0.002269844491334827
0.08864558059567787,0.7518644677235862,0.10726230240956057
0.08853043720916338,0.9220710829541944,0.00788770029712009
0.053711,0.21320819606060132,-0.17405444143043158
0.022461,0.5196132800579412,0.037910885927869065
0.03990947143652715,0.3992044132323824,0.28373614397564495
0.2001772126460448,0.026890196838637494,0.3602945401828296
-0.10490273508586553,0.7827571281574198,-0.22559928946118296
0.151367,0.07516781943976518,0.22631968447361855
-0.135742,0.6454769901875481,-0.00399299720792734
0.022461,0.6116685545882493,0.11807648957839778
0.11504958414124762,0.30494397092373254,0.32201115446320633
0.23128535072789416,0.050781,0.04698150270937486
-0.0331829573291417,0.730103269323593,0.24477442409040023
0.09320479138542676,0.13801173940517125,0.284002047021
0.08253017845884658,0.35788054287665194,-0.38298492836478026
0.10619106117054028,0.32609907844807784,0.27051285166273087
-0.07349289283272092,0.8269053291250267,0.16509952932471414
-0.135742,0.5685153268739396,0.11128896723870324
-0.15822123443787717,0.5074441858001555,0.30360648932125633
-0.135742,0.655214650330125,-0.05279643478050278
0.12234342552692516,0.391463396835711,0.2744521692119723
0.18368587630585945,0.06274419504391486,0.41472984766819976
-0.09781542838047799,0.8464757418314116,0.13802772615861414
-0.135742,0.3164954015702278,0.12734805066600194
0.110352,0.470387273599549,-0.221897955645181
0.022461,0.3955365272300275,0.12831772923571855
-0.17171160828683613,0.2601113767676133,0.2895203966591768
-0.2807426292847356,0.050781,0.04217672819003128
0.022461,0.6071998844863689,0.06541086371365293
-0.135742,0.054420203645413945,-0.2385551830068633
-0.13389269423486605,0.8938142621345883,0.022953281084765277
-0.135742,0.664692438725942,0.07896957498418455
0.110352,0.6537822420980569,-0.2670309491636676
-0.135742,0.37078928994906335,-0.010566991668755993
-0.06526120054460881,0.15203774460150957,-0.30239011878772476
0.110352,0.7866423381550461,-0.15502285886282702
-0.03202702091685798,0.0317280736763311,0.4628179372018576
0.09931013113121565,0.0,0.3703888399366493
-0.34463113685421165,0.0,0.12190852651106196
0.12763192594905196,0.07495288510714364,-0.36939536054973227
0.06839222451824331,0.38881475745508587,-0.2995100925300006
-0.13985353893846222,0.0,0.41427684796430286
0.08393473567024276,0.17104444254774062,-0.19472974508896215
-0.021975571944644723,0.9274518925052558,-0.00610251473602999
-0.13290028031639434,0.0,0.4034249829799519
0.017900894801364878,0.6956026702342084,-0.3225610468417259
-0.135742,0.1274805510692477,0.14104931258422537
0.022461,0.1830179464376661,-0.07358161038389488
-0.13293419494051295,0.7111806710369246,-0.07893054184867859
0.0016356906908298165,0.6931378929461218,-0.33620996551838583
-0.135742,0.42159201874390856,-0.015076726746323432
-0.039029488689002814,0.8223032175531517,0.21833507673104907
0.3025348302583097,0.004085845226512246,-0.249023
0.0662226400324331,0.5619279313541826,0.36735192590232296
0.04946431774516384,0.13325932609772703,0.3770532284950782
0.023250340520899138,0.24075611148787196,0.2833602999402341
-0.135742,0.3130858637771324,-0.10338946805011501
0.012262753223122874,0.5579022018242032,-0.39540407347641987
0.09330303061881365,0.4672313404094452,-0.1966678761284451
0.03964201007881206,0.9245103267003657,0.0015456166007232555
0.022461,0.14306585516369968,0.14026555650547215
0.25671770377237185,0.0,0.2683045610053572
0.008601330669405289,0.7733961304162471,-0.2841353487722666
-0.135742,0.7396372272958246,-0.056011515552555624
-0.2080539601000527,0.050781,0.20295222439126837
-0.135742,0.6060873979206967,-0.18130249262947828
-0.30997215967202413,0.04647328146658654,0.016707825918019763
0.13793173663967406,0.3270682062546456,-0.31271827230335775
0.07618239809533398,0.07701051376794561,-0.3827350266080406
0.053711,0.5757297991785738,-0.17226782375256533
0.011592531489591287,0.7730104201283224,-0.283415391014842
-0.289189346086414,0.0,0.1236675860731749
0.23806566646696697,0.0,0.20049358563525937
-0.1526966906584573,0.050781,0.04210029810873561
0.05625463428881819,0.20670651775639015,0.2837313734383069
0.05271938203595403,0.8607865013406097,0.11527299209379346
0.01990665108128732,0.05941829227721078,0.3893783081019197
-0.001652997444408057,0.04425608989352,0.4559440202083327
-0.27477082578678386,0.07148127424198919,0.33638054331327005
-0.135742,0.14080696314117594,0.11106636463733824
0.022461,0.37165550918570633,0.014228184484519263
-0.03951759162999392,0.6742049988304746,-0.2820091301526202
0.032557220929497706,0.3357119279934943,0.3750475341659306
0.08091654278423362,0.019338501675783784,0.29812857269418297
-0.135742,0.2770650361437563,-0.18133234380654856
-0.135742,0.20572880368169064,0.23699463679196778
0.09676993815830628,0.7215968869695238,0.24998809031927213
-0.04987617342356808,0.6502785165797904,0.272683778283894
-0.135742,0.25804137191930293,0.1768457785022589
0.2926209187138797,0.050781,0.09115881179766774
-0.09159021109012597,0.5702497884110851,0.3944188570062745
-0.13098338485382904,0.14614727126314755,-0.3077052475704289
0.280109782325101,0.050781,-0.1932941493908424
-0.135742,0.5954136019850785,0.28770637959958545
0.151367,0.07435817526307079,0.24911692405787006
-0.1011373242245268,0.1271924093082005,-0.34185704803836714
0.05623504663875628,0.7266437282262855,0.2468948193225518
-0.11435113643562937,0.0,0.34497666918149117
-0.134753653497775,0.7148200539626514,0.030221859643870447
-0.135742,0.6265734579208152,0.0021002791465060677
-0.135742,0.2957127662023077,-0.18682442270142535
-0.2736816147828917,0.050781,0.016510204156477627
0.08728199846359884,0.05867236505807619,0.36614910406718043
0.04945580099970148,0.2581429205455726,0.15305406708327735
-0.12778183864458736,0.8914152583730035,0.08904042518013265
-0.21366254960140288,0.049649487003308374,0.42815268490316727
0.125977,0.5939728315075162,0.2296158169140861
0.1810043234338229,0.0,0.2283765337587077
-0.18938602493352164,0.050781,-0.1438370488768257
0.09587058686423208,0.7471489459670452,0.23432691950324466
-0.135742,0.2614909703977678,0.26154515411562523
-0.135742,0.21612380483382226,-0.1935325970569767
0.047866945354469226,0.33905020051990575,0.35507950465636706
-0.135742,0.5891647622640404,0.15733599985468671
-0.135742,0.300676040103901,0.25092490099368786
0.0065085073590989,0.4423060879011003,0.28346051090752916
0.09059717957238692,0.699974423165762,-0.2753048941102368
0.022461,0.5854784605889933,0.09439934192300117
0.151367,0.09799212459521683,0.2017651385340568
0.110352,0.19677420987672134,-0.23701492483292097
0.05494977174837317,0.3976469855435077,-0.43148325891478967
-0.07919398997852972,0.5239553219054869,-0.30612000934136463
0.110352,0.690520285460083,0.18466185155102538
0.026675494451325617,0.4262275508161486,-0.16530238904523004
-0.135742,0.5819335622111655,0.238410558705334
0.30531370032300204,0.050781,0.057560815304062984
-0.022898355856585548,0.12129785593581491,-0.29885199708006593
0.04415699417505507,0.42222206415459795,-0.2994779856294698
-0.135742,0.3486313061139846,-0.11480826188325402
-0.135742,0.2891015300156118,0.24701124153924317
-0.07279927757204536,0.67124561103594,-0.2831186302241053
0.3386985223620877,0.0,0.22248865998346745
-0.017319183918565406,0.7710603311508238,-0.30054661940941496
0.022461,0.6124349781714558,-0.08706608375589162
0.022461,0.33081639795651047,0.08665858984953256
-0.135742,0.041243255885901504,-0.28143712422821876
-0.1299922077868677,0.15860982692433806,-0.30766526030707814
-0.13897996464221835,0.7268106631490109,0.27015999667661944
-0.14439803637982196,0.050781,-0.1788446878830998
0.0912137991842201,0.08764195543484432,-0.31592445805499375
0.10559466194393556,0.8334272706157705,0.0030484533160912933
-0.135742,0.7717869650294094,-0.19472537491929315
-0.06255332816571565,0.40250994362565456,0.28274233629669165
-0.14210406850024251,0.3683404352484056,0.2596887853082717
0.1309771212585101,0.4026817011438195,0.23989602754878278
-0.135742,0.0757471568755815,0.039728931321649175
0.07102046272039533,0.41146394651529666,0.35465304011926485
-0.006964451737705699,0.04875989638143059,0.42788581055388314
-0.09679103691148787,0.0,0.29524179546439827
-0.135742,0.18673758087750797,-0.18575801118428178
-0.008952764992445753,0.2920931674239048,-0.30006273134410133
0.10901006097645326,0.6465971298092287,-0.19214357552223937
0.110352,0.19796000555590934,0.27606309099004794
-0.135742,0.15138901287928339,0.13456562043728082
-0.135742,0.4749117582809726,-0.001172481992251992
-0.37313228855903957,0.0,0.05451517746838284
0.012005779691369595,0.569707995055641,0.29615061203143134
0.36748573101881654,0.0,0.11205246607084207
-0.135742,0.153783731984795,-0.2738026239531707
0.05422230765888844,0.1672669477192137,-0.18858278032073683
-0.135742,0.14562611254835986,-0.14577447449731945
-0.06589134717630804,0.8896650661835455,-0.07793526426355962
0.022461,0.4686114988692598,0.11754658115760601
-0.3310915321786996,0.0,0.05642965480788954
0.29625615716387554,0.050781,-0.08799431376286788
-0.135742,0.03664447057746222,-0.23350107868508502
-0.24133146735666514,0.015433298220289295,-0.16709892984299374
0.04230499432967652,0.3715314025568118,0.15260717026962747
-0.2816338754620405,0.06586530002938927,0.3417621818272271
-0.135742,0.15164942837845807,-0.09933252634354182
0.07679298004815723,0.0814739594043532,0.3926764966764787
-0.135742,0.18509014453515218,-0.23132414086449898
0.2774220178161884,0.050781,0.0059843907672699065
0.10606762993542164,0.483913889033683,-0.19930864120660424
0.053711,0.7654622559435329,0.06666787370800088
-0.13419140657277545,0.7827714739726098,0.05734465672951847
-0.028901082271022827,0.09469685654695598,-0.3795661603001444
-0.22635094319614624,0.050781,-0.16374833813216308
0.022461,0.5602298035763953,0.12767622253846014
0.022461,0.5572305972773466,-0.05437502322312668
0.04537875437302619,0.44415745869559453,0.3340118202251442
0.07807220579709168,0.117188,-0.06000926436896688
0.07430701408360535,0.3858832314750726,-0.41307710824643035
-0.135742,0.4064277948170207,-0.22856748521316064
0.110352,0.635876592539903,-0.24040658210295102
-0.135742,0.6318047744872156,0.11458980116872353
-0.135742,0.4710672489074329,-0.1371508254568195
0.0780966435056485,0.4594747613288684,-0.2997659299340661
-0.135742,0.05252377273557017,0.0011347573544300549
-0.018531080875729418,0.05067986975235568,0.4410049857713703
0.022461,0.2432778697600222,0.13105456740338975
0.110352,0.523081080603229,0.24136091663041592
0.18543074801047046,0.0,-0.2523352779611199
0.059498935493703504,0.7842076226498699,0.20699548574170482
-0.079718723117361,0.895435616499202,-0.11173727998504543
-0.031097278297034583,0.6432623376452922,0.27412299211379915
-0.1464490553465785,0.17915333891254837,0.3887372239720943
-0.21699591853420067,0.006635482197531831,0.24043720221136694
-0.027048855168853633,0.02249976354760365,-0.4858506088250266
0.12551591415984262,0.44361738632642234,0.24333423510555732
0.05889402989152556,0.12305171359860712,0.2833778511922155
0.17275998328997427,0.09433872468783422,0.174805
-0.135742,0.6850471608979121,-0.1300630402576633
-0.021186756276126827,0.1383954792212257,0.3507494575658655
-0.14899322464344888,0.6128314592237212,0.33061450881080506
0.125977,0.5855603632171225,-0.24956075286344528
0.3608621249742678,0.0,0.06053118711302381
-0.135742,0.26246340791251743,-0.06767911255114933
0.13226316365879034,0.496878382771291,0.30367504479303514
0.11421324505578513,0.09397729883579531,0.30262658561640704
-0.15646361753311963,0.3886112072134125,0.3849718134781487
-0.15710991196551274,0.15672785413193152,0.36220118076897834
-0.17799572982319664,0.06779061165930293,0.3213989645615577
-0.12823724841558826,0.8544176453363108,0.06463765107056918
-0.135742,0.16163256963502798,0.24262483033446253
0.0016289315543014,0.10144481884305528,0.36128293390827515
0.194336,0.07942706514230077,0.11770990686756537
0.020726638840680794,0.15129120513555017,0.2828959976525972
-0.135742,0.4412307209484074,0.03106234328704849
0.3495116033992218,0.0,-0.24533342171647737
0.13085766140678617,0.40768308675424764,-0.3275858779766088
-0.09730631140591772,0.6781147069082264,0.26697379989443576
0.01693462506255386,0.5657367368335618,-0.3039319926126026
0.110352,0.7269811781347317,-0.2560533383625743
-0.21471508446584814,0.0776813085497673,0.3822055231778006
-0.1023834576523444,0.8649063173193736,-0.1299448047906434
-0.135742,0.4728302472024833,0.10815291012270031
-0.20581607512441133,0.13722971887430938,0.3452476195893129
0.004899814702574334,0.6044535970751834,-0.3087063164538311
0.2912611013964542,0.014878591606425294,-0.249023
-0.22338254636345045,0.0,-0.22643752685235197
-0.135742,0.29551887524499876,0.04962474901452604
0.110352,0.7504329977285825,-0.19504615004011244
-0.135742,0.40266481506186874,0.012477857235569184
0.052978563706010964,0.6929538571911776,0.12497897772557956
-0.08283034219250193,0.29139761911822043,0.28197026230117944
0.194336,0.05983400277507772,0.14828996993300822
0.10626549545503897,0.09008013011356585,0.3833466013423382
-0.17046104253861755,0.5497084749485501,0.33832385647060326
0.06464986408998297,0.6223906725200681,-0.35593680005914513
-0.04577601236094459,0.8368986099127899,0.19147908021426027
-0.2017928094450516,0.49348804862799023,0.2917556040121059
0.053711,0.4952030763828647,0.16864503929635621
-0.12012096565681049,0.05419953140390327,0.42229962138968796
-0.3311226807122606,0.0,0.2656268142181637
0.06190510874058498,0.34969432178068377,-0.38909645004946813
0.03521331939700952,0.4831053927105429,0.2837533746739817
-0.01764791063518692,0.11883721803537248,-0.2984178631924726
0.25438802206369227,0.0,0.19107235391043537
0.053711,0.47447126682307994,0.16684157311226228
-0.004247646792780252,0.15379149781989904,0.2825050516379957
0.37744330316677066,0.0,0.1118784109962575
0.07023471015610254,0.8583345594141181,-0.14041539688001758
-0.08617046050061851,0.06614829319965664,0.3878553442389428
0.2694129467232591,0.050781,0.08401747450646853
-0.135742,0.592769875811396,-0.12181025363873177
-0.135742,0.5457433543327914,0.17779264764495809
-0.10931133301325831,0.7925894421307053,-0.28222224788053873
0.1235596620596062,0.0,0.3663398129398355
-0.135742,0.17243871277650258,-0.1435100727804694
0.09855747201807227,0.18822138283721693,-0.33033297277881335
0.30984031938879675,0.050781,-0.17721230101559804
-0.135742,0.5774049363282876,0.13750051304123573
-0.021094625198322798,0.0,-0.38760657292678125
0.11383894572163267,0.0,-0.4078057293090733
-0.032315766870885776,0.8543960355160023,-0.14535282367948868
0.060239909454421287,0.7454156435924942,-0.12338441754313961
0.022461,0.17166548691417463,-0.06354058830783563
0.09833581664554399,0.03888214930248263,0.2994180480579048
0.022461,0.45215178996444116,-0.02598514790219361
-0.018699015345187427,0.1067484192654764,0.36867101880544634
0.03240365312118717,0.0,0.2861330632316686
0.18760368262724406,0.117188,-0.17311706477988037
-0.041353019433817806,0.7844241660903235,0.2067170772721105
-0.135742,0.6119389121584636,-0.14704877425948765
-0.3123054134246015,0.0,0.10786954689090222
0.022461,0.3898885040415987,-0.12818302409587615
-0.135742,0.20595465310433148,-0.20862484641422005
-0.18797756224437953,0.07483966124782306,0.3134339422800949
0.03267036414825242,0.723977515302072,0.2485289739729484
0.125977,0.5781822329722425,0.2094810389166927
-0.03318803552085695,0.8805204821189196,0.1337714816980228
-0.1761114061779801,0.0,-0.2916570739402698
-0.3906639804438954,0.0,0.02217390164853573
0.09641202155540099,0.0,-0.3361805733745365
-0.135742,0.12950435696586732,0.2723655096550953
-0.057995793392841694,0.4308800041024023,-0.3039898079410597
-0.135742,0.09936877317653435,-0.27507829154704205
0.022461,0.7171655707590179,0.07931757175029804
0.08481896721862899,0.17957463791851286,0.28399046736658373
-0.036729626436821,0.8876094085817123,0.06513858942050223
-0.2708217126565781,0.04991728787104181,-0.04565602931328991
0.11926507104604975,0.357219290592185,0.26279984705521264
0.110352,0.43192371305423494,-0.24713462261217195
0.19592100662869472,0.0,0.3903091981663768
0.022461,0.4897888819203493,-0.020261574028714757
0.02482211644740314,0.32566466422927254,0.28354474573978383
0.08252600812855605,0.32118083299221445,-0.35003919056586114
0.06449108744117533,0.1602249380017656,-0.37702839759103995
-0.2872909281803973,0.0,-0.27752212866905174
0.11540858873350514,0.07440059782561949,-0.393918195651239
-0.11303067748221617,0.09187298003746402,-0.35889002984843316
0.0797016065524766,0.22705784060047132,-0.39363900895406545
-0.1108337678698316,0.6074251530996875,0.29040840049031214
-0.11046661474516545,0.21125970667823532,0.28134309717533507
0.022461,0.3888843834747486,0.02650301552685118
-0.135742,0.29200968568850505,-0.0721715269255726
-0.135742,0.09852810534024176,-0.01954110303233142
-0.135742,0.6550913857964848,0.04592325547825332
-0.027909451736442104,0.7422971315338793,0.23730065616426474
0.1423874779465299,0.0,0.3755748421971481
-0.135742,0.09580464420954718,-0.22099698296781967
0.025677087602380112,0.4978181883041154,-0.16523999261079833
-0.15377508962486633,0.08510968454123051,0.36863362587824666
-0.007162134801289938,0.7299985650996941,0.24483859859531196
-0.135742,0.336513566466828,0.13513872979454208
0.125977,0.5739516310966991,0.2467128369089993
-0.135742,0.4200421095984448,0.24548358036357318
0.2490950767284496,0.0,-0.32922225346597694
0.10944413895935472,0.8481050408024319,-0.04539628906570452
0.006187710722453291,0.8192503717613087,-0.1851662715800929
-0.03117114526932492,0.9136563747899331,-0.04484580430227171
0.14392500327872496,0.117188,0.01444115974503224
-0.2834127097506086,0.050781,-0.024839581233578555
0.04335947222592054,0.7246316918464937,-0.31642758062544457
0.09430124150886231,0.03402127371909359,-0.31401145213994414
-0.1345083709573808,0.041117887409885714,0.4548721362865279
-0.17591206344916313,0.3431269633789509,0.282357066306149
0.110352,0.28167232661175556,0.18873287709491346
-0.32526951364245643,0.0,0.17010647788232328
0.11768820913862904,0.0,0.3743347047866959
-0.11032266655651829,0.05084119462314362,0.4832223299855311
-0.2544597447233018,0.025595960723029255,-0.16037111911099527
0.06456345666759834,0.0,0.3904456728814327
-0.135742,0.757024548717659,0.12747325934779452
-0.10116219747784413,0.7872190308405269,0.20312373814257018
-0.16212105122376175,0.050781,-0.1125314254969502
0.04410606671222805,0.3602560412435185,0.3306849230290091
-0.15735547760364924,0.1575991876976648,0.35712142724595436
0.32002408717953107,0.050781,-0.0542774386061885
-0.017536968009676964,0.04202849662188733,0.3887615581637481
0.110352,0.21573141229931125,0.20581115690591592
-0.135742,0.6749238006613005,0.2032054601511427
-0.135742,0.5319985260504381,-0.04888397717255984
0.16774999585036643,0.0,-0.38467839240212
0.194336,0.10092759325160142,0.015570144382072746
-0.17378714607251755,0.050781,-0.0691590124840151
-0.15009957252711606,0.03449145884720296,-0.2224936576596721
0.022461,0.7425476105774819,0.0035681458681274536
0.048479455585595986,0.6315351934714395,-0.16328473219947268
-0.16802477669720603,0.2647184602015109,0.2977728073436967
0.110352,0.16881225755807128,-0.20751756219257086
0.23576603297085158,0.050781,0.09257426804282781
0.3420521649327296,0.0,0.11369057750517982
0.05372200855011905,0.7035508638218072,-0.2732128367588859
0.008667038826454587,0.07990470497480014,-0.38314690908744925
0.12281838809719967,0.0,0.3276713274434294
-0.135742,0.44683288561420575,-0.23518823172676562
-0.135742,0.3455691283675186,0.0958691422903803
0.06408220261749671,0.367783538137622,-0.39000825017215157
-0.2798138993507009,0.0678125301233677,0.34033501420162804
0.06778805876508295,0.31911278534174986,-0.38719078928943446
0.110352,0.13943757787021088,0.21763386717689617
-8.87560445608608e-06,0.19647814391705506,-0.414088733351834
-0.017090253006391887,0.6893137682807519,0.26467656030579806
0.12054974542267212,0.36187751332836815,-0.31279597079897686
0.14451483447595284,0.0644924881965391,0.37318661067378034
-0.016364209105769176,0.4883642058073891,-0.30294910013737336
-0.0838683913310054,0.7798307550751503,-0.2274184070367965
0.05933258299031965,0.28115727015637615,-0.18964000399852696
0.110352,0.8197388864854883,0.1627435044120077
0.02355732156755134,0.7394430113530084,-0.295563759657145
0.08665297365662467,0.0,-0.38842850407216123
0.32261204489110296,0.029088931934038983,0.241211
-0.15786908595412133,0.14964078781900034,0.34977060482763794
0.022461,0.47672291373887354,0.075425527316199
-0.2845454945274068,0.014079765945811408,-0.0995945878148446
-0.135742,0.7382527142716556,0.10138222010981834
-0.03974042496606646,0.7678066186284311,0.2510047595390517
-0.030028679208480666,0.5248321362639096,0.28318444090267114
-0.135742,0.28628108513476624,-0.025012115736738783
-0.14107118084637998,0.6275845814934168,0.30505025260552004
-0.12297209698462343,0.514597860836809,0.2822986203705867
0.12241704369643686,0.04959598076431221,0.36468121550637717
0.022461,0.35717530433516254,-0.017074844120276017
-0.12205658499129458,0.1749134741047667,-0.3070741067566908
-0.027698768232918593,0.7110301084515307,-0.31453252760646966
0.06716908319711659,0.9216651832338226,-0.0232218984868975
0.08235663024988182,0.06910176757397996,0.3706224789400953
0.10369403121019,0.3610627483416573,-0.1988175864960189
0.2752231113687091,0.0,0.3563067137209981
-0.135742,0.3819217709413368,0.00477948068682163
-0.024172045094235463,0.13870445142611593,0.3557133056597679
0.022461,0.5410079256383349,0.0069792080093346864
0.3868094072768358,0.0,-0.1380397252326292
0.06633885771833814,0.01845477329114704,-0.3131122538862644
0.019262643226100322,0.0,0.44504873849722587
0.34380457776227885,0.037095509135374405,-0.1784218365219023
-0.19611512410232185,0.5021479014405599,0.3036541757530596
-0.15483606927063723,0.7223804803117422,-0.2818182654923876
