x,y,z
-0.10769902796508356,0.31533961763338497,-0.20521209659766915
-0.22127509084943484,0.15655133698971663,-0.333863805996782
0.3955047672924288,0.8131504182187604,0.03866451063842172
0.25289046158861844,0.11869864662355732,0.0031329473220337994
-0.023122095664080786,0.595669698085353,0.2590024599925295
-0.218142123925948,0.5547850566864766,-0.11830090029778036
-0.3772295763648017,0.18414989232427803,-0.014498436851923271
0.22132166039823767,0.8124689669828622,0.2873272693094044
0.011514302015634317,0.19165653044228617,0.16388683944040852
0.12795199462664106,0.47219739108900993,-0.20640441396329534
-0.37910622183042664,0.10936537433855559,-0.1899297125368779
0.05287400145327006,0.8131732215851877,0.2546010303435464
0.18862235749793652,0.4493130698152558,-0.16449811119581673
0.2995843211413234,0.16813617146262447,0.027362056529201303
0.10374859370741663,0.2663565236727508,-0.25301607113259106
-0.27600566029697327,0.7346041532965655,-0.18260279679273084
0.32060628412009284,0.7144609409669712,0.1503925222161765
0.1536598216320894,0.8048115047027918,-0.28997894924663936
-0.14490958163083312,0.20489091225087175,0.15500853595741476
0.0561755192245533,0.3537983718858264,-0.21907755462138734
0.2744579696886812,0.42070866003714613,0.08630653055505494
-0.2618172469026516,0.3275242999104486,0.3598160233611426
-0.09130164434450597,0.8209057656713873,0.2832022918937945
-0.21948292616656417,0.7671716982120594,0.24379045884660583
-0.14904141473638144,0.62539057571945,-0.22854868996126068
-0.423998910126211,0.2916695741971481,0.22858380147530794
-0.25192776974993775,0.5947265437326543,-0.013730207327413074
-0.4545390326537364,0.18867838929178704,-0.01006084458486347
0.024599000854939296,0.8161220308232228,0.2985011269816677
0.11043883892823755,0.1907522944525215,-0.06129416563429213
-0.012939823779437405,0.24013447258467382,0.47299302309434355
0.3237393260458991,0.23114359113040167,-0.001825111283571216
0.06457068108523618,0.24024503403693406,-0.2340138272302231
0.017037178768658734,0.814161286655982,0.16275642389544018
-0.21094154370427895,0.24463300990431203,0.22341130745074095
0.13058599223055786,0.1567520793292631,0.28290864411306466
-0.12897752408729582,0.19457163064472166,0.03377608850077453
0.281249090127639,0.07782837954579297,0.20073440094123848
0.14544011805966112,0.21886706297379324,-0.21483634151318493
0.2108905884575242,0.14563960652070987,-0.1275558763109878
0.12340998726192723,0.3372412428939972,-0.1992968235773485
-0.1361049743295126,0.1987357739529016,-0.2959589432662117
0.4363103575302488,0.05849737359384765,-0.002416630224552492
0.044907856687837464,0.8152392438790389,0.3409143780765626
-0.2034647276903379,0.7121503510882504,-0.2416266043399266
-0.07852007200300931,0.27788172236929515,0.4908923258728622
-0.28296968164291364,0.3133457614462285,0.3160007011190053
0.14702040387426438,0.810547,0.31486385430760444
0.02388818292447929,0.528810705483249,-0.2396578788154114
-0.0780611596209577,0.2774587510166643,0.49009337561783367
0.16374298814685828,0.8148766636998537,0.01657141715613175
0.03601175553325841,0.8051314875058365,-0.1968297599778925
-0.23151233847932848,0.6823131555595731,0.15936932825987735
0.13556282772597095,0.8065701191263933,-0.22246905281693372
0.007107213723225772,0.3738197035018689,0.22738362021722278
0.06701577223542418,0.30743432091728234,-0.22754892628387058
-0.340588599862325,0.7890030649849209,0.09105754830701553
0.09670317496417026,0.8111267438192733,0.11214347003123432
0.360680271406304,0.8187593061604697,0.13702379940206177
-0.2380127759665845,0.24231601364618485,0.04043763678287246
-0.2574537272883219,0.7183602343753442,-0.19044189211652318
0.11727987484289137,0.8128190864184454,-0.018323033172987908
-0.19209760409413965,0.26529193907023396,-0.13243639588475903
0.009663147220154433,0.21365309018509412,0.07460966870147212
0.1035306409849182,0.8119120505084458,0.3109506153924285
-0.20218684238897988,0.2570700518840108,0.2720584492145083
0.005376766975459371,0.32686480991369304,-0.22263054651271386
-0.21387231162172288,0.15434217399022976,-0.12186407665851857
0.29915772256667494,0.07980597585538346,0.3193616244636238
-0.3232334102069386,0.2545258065652982,0.16842909677590165
-0.2575946604113807,0.817402817797634,0.20837766671166388
-0.23836055032930806,0.1626989203457896,-0.2401427951348566
0.2837502715445984,0.18536163758602026,-0.2849349310790874
0.15056347283181054,0.6690147569600234,0.27651294643697955
-0.3478566957591959,0.186673215336485,-0.007127777717014436
0.14470297006068947,0.8121416238309728,0.15487808253927693
-0.1274144056318393,0.19680647116345873,0.04829816973433877
-0.2716529523212374,0.15324073782433636,-0.2987011943254158
0.33330307868771586,0.1295786724704412,0.06298502395322264
0.31307833743439595,0.05287220005369052,0.24945602130558575
-0.18240609766658536,0.3254478977048038,-0.11818621329572346
0.13590363183630427,0.17216708534404856,0.3721933311387945
-0.05734909067324251,0.6566353806408609,0.27095019495030775
0.2527291214646277,0.6091117228469198,-0.15003714906175275
0.15519392837752452,0.16658520768578464,0.4345804765706557
0.13656998189836048,0.19239121730374795,0.27789270493416945
0.23436560976428805,0.2317431092457434,-0.18358429699579665
-0.17789716585785137,0.168268186061004,-0.2848526628920255
0.15380598073638085,0.28313763738058617,0.20995448125791352
-0.19861538775472445,0.18261571539550658,-0.31583281680350334
-0.38917448863741005,0.1961979862363019,0.06528372320630021
-0.3778539555622192,0.2289463653224125,0.09640488990954435
0.2195524573115354,0.2979596674311744,-0.18095477039111993
-0.26698880338833025,0.13134469091127202,-0.2120346955887862
0.2593802385702586,0.6734723591582167,0.2119726147279585
0.024184097180683102,0.22457635210582555,0.011229377808977743
-0.03875358202342977,0.8112770544163777,0.02595333256519118
0.4109955627506162,0.14222178757475196,-0.2482106870786955
0.2713319343208341,0.4444997249296808,-0.0010187921828301583
0.048907224131262916,0.21457309321957097,-0.036346713327581714
0.0030274188441949193,0.5289843247191778,0.249388417921792
0.36890492231321853,0.7473770424008389,-0.02620246739125822
-0.05321271744069547,0.5319199207014368,-0.2328982449302348
0.23544814529367775,0.22269414784642944,-0.19725320912788724
0.0926281387740599,0.3972704728949013,-0.20439289604632724
-0.3266862742612449,0.20455206750763788,0.044581602445629906
0.23272686140964327,0.20541371595450675,-0.31756227282311333
0.1481370515279594,0.6549033608697781,-0.2593770149898996
0.11203227397850987,0.23481759423702322,0.2387222729871864
0.2784378007728142,0.816627301091062,0.19389395355023403
-0.13330951185632717,0.21642648943684714,-0.41836252381151096
0.24879383303644842,0.17512107157927817,-0.25529843001600594
0.298661417426889,0.5897245115969555,0.08791778846298923
0.39413304833128016,0.0899180949142312,-0.01842982595139555
0.030705136162682223,0.20517904579687188,-0.08950995792601235
-0.09566470845513263,0.6325533924183012,-0.25549114949649426
0.32569959611529453,0.10964952695397083,-0.09411980507978812
-0.0036828123971802125,0.4894391175776109,0.24079098931169454
0.04623420085916859,0.8073618681980792,-0.13712861337220197
0.14664161336458395,0.5937295914669575,-0.22946999734274048
-0.064344569589226,0.8056103603890779,-0.14376402262328247
0.37410427953784325,0.04344923852876316,0.20883412635305876
0.3382838722470449,0.1125515553936218,-0.12133037889276974
0.05450372424114447,0.7592921506521765,-0.3376850069474154
-0.01397341967771264,0.7251374934266532,0.31283358886052487
0.3581206920019541,0.7961371777287501,-0.16450587834151942
-0.0969602714869794,0.38503272843734787,-0.18638056431666322
-0.08615393782179964,0.6905046001749167,-0.28440427654035716
0.1796183207880208,0.7275048661613506,-0.2845043801385157
0.22874491351061432,0.15307703691234054,0.22263661306795673
-0.24222111276161262,0.13857673067189727,-0.2338512461220159
0.34921211134820207,0.05393312382097346,0.2597704261210624
0.38052516502026856,0.04743406037928699,0.044445506684069505
-0.325441070417517,0.12667826629287818,-0.14729286383038231
0.17342655863499085,0.3497404865512111,-0.16350212347398782
-0.13059160707152323,0.7453518639438049,-0.30845221443259463
0.20946452472199226,0.8159623114097004,0.05487398134226419
0.2044952193698286,0.24800719927041892,-0.29321274992141094
-0.2778999124647229,0.20733181835531878,0.03442169854412838
0.0043936916559261085,0.19256022463464983,-0.25299697115882913
-0.1250505385711563,0.243267026491899,0.2688022501501384
-0.1310767497982852,0.8095550065027035,-0.01742676474415633
-0.14473254023915838,0.2113716619599593,0.17265559718547385
0.04733038883196021,0.26373259318135583,-0.4505361682561114
0.27276760712211623,0.43587883901140095,0.09510540464182167
-0.03444285829592055,0.6249185017290871,-0.26867939004970576
-0.14884901925983404,0.2615109677656024,0.32528876691178227
0.10540866706366546,0.17370366860570416,0.45903559411535666
-0.02156725879485876,0.2407525034878328,-0.4674871838626659
0.04162525767525635,0.2136897372578604,-0.04566736381014161
0.1593392625039759,0.81478988356842,0.029875772058015157
0.2736299084454842,0.5086583066566006,-0.05400050170252733
-0.1429100678920015,0.2994121206522919,0.4132362990841647
0.08792927462852423,0.8030635271955456,-0.31933195349693644
0.2177837349838391,0.7187325922939254,-0.2555911504468239
0.26405064882019763,0.6925052162196286,0.21893059858410813
-0.3386369670861852,0.8030579073629045,0.08872796803721106
-0.0764783135024942,0.21581363451919727,-0.2927663910636901
0.28090554828157144,0.08769702245949232,0.11730059443846952
0.33775424815081034,0.8198583882851153,0.15616644614762354
-0.2348113332776277,0.8080803410759851,-0.057982600253454225
-0.18756374064009934,0.4231041570577753,0.11510164373455091
0.2573116105079949,0.13097776672294112,-0.10876951369513829
0.23436081604285672,0.19433319087912854,-0.2923741910266008
-0.22215866828592096,0.5299089428710699,-0.08895883604467009
0.2701597882654291,0.22842257535847774,0.04269127756071101
-0.16152050500171924,0.6744532353381127,-0.2463579092748205
-0.04127838371510425,0.2602691143083902,0.4949652391863488
0.2687502965725291,0.3044238862234408,-0.021828705386372688
-0.3141293365263686,0.2453657970144226,0.15502905962547536
0.018632748385637325,0.25578022771442566,0.2649280001091145
0.3212336333715377,0.6520191840800021,0.13910501032959394
0.33126965037756223,0.6187054057486896,0.08984287955047529
0.22047189516375118,0.3331035874531347,-0.11550988841045973
-0.34222354999255733,0.13477269734394592,-0.10230041042917204
-0.33478247772302083,0.11991679674604248,-0.18137109616240765
-0.08715122681228132,0.554071243783666,-0.22847085988571997
0.19322601457269353,0.2856225588103975,0.17670815357486866
0.08471029126789964,0.22101208900319622,-0.25929005375198944
0.2629003057501712,0.22252744507584504,-0.267911262514261
0.19319688324795425,0.6405862262678689,0.24747873193838477
-0.0673213554627588,0.2732443320270514,0.4194655411029813
-0.3561189266936667,0.1703868740124763,-0.014729683087273331
0.2936170256080972,0.09667468369921721,0.010398474954629096
0.3254537904048394,0.14188240807027583,-0.006751142493465509
0.4458599906373577,0.0070417341207674265,0.07630791736439632
0.35652975318668734,0.7249959369237836,0.12621927836390373
0.4230316778514831,0.019359033303799192,0.06614201517129012
0.08135616531593674,0.453014538951097,-0.21558156195426642
0.10507053002956412,0.32672224394162314,-0.21524023591935698
-0.260292490872971,0.18735546377172857,0.06422337808467288
-0.053692866198148045,0.7990866090715012,-0.32765539120264264
-0.2014226683818385,0.6010562764439972,-0.1693518231255963
-0.38385069497297863,0.2909464906031422,0.23799786796658273
0.3174691377497974,0.8112575312496508,-0.20980001266896695
0.07719267313114106,0.40040365008071643,-0.20871154887183255
-0.35113799844628957,0.7857246206194083,0.045737193072186016
0.30489632552899415,0.05054398423974228,0.3263667765562112
0.43913192884314756,0.02284472193619036,0.017315171276175316
0.13844246094873763,0.7121002668581597,-0.2905876802632342
0.28435554714846256,0.8107147526366931,-0.23069886959469604
0.18232833173863236,0.14524761426370733,0.38733532383275304
0.16993189500501904,0.4658347097254807,-0.17905839341562652
-0.2901849744220518,0.3359851290388309,0.38752611636042666
0.2705895808581375,0.718914345572031,0.23241346673567123
0.4502071178962612,0.09501507287288312,-0.2082086341121984
-0.2211778397785776,0.279798070093563,0.09958411678985891
0.12738434451270875,0.8037137674718478,-0.29668470983531314
-0.1726791288061263,0.8041903988995576,-0.22435933955206996
-0.17933860704975657,0.2682981777090181,0.2994154662661307
-0.4096847966990166,0.1883281676400381,0.04660352456777997
0.0649400618552194,0.19491701882136814,0.32995851577213803
-0.23482341680966187,0.6098061401248474,0.08900142237090736
0.1364652178765643,0.6453047565267932,0.27065830417601894
-0.22001202145936957,0.19114775420847477,0.08617631126278893
0.05880736742841789,0.2314243447361189,-0.37749735660779615
0.06506559450142303,0.17369663213445066,0.2930746073616385
-0.21561442133642603,0.2539137582042412,0.12503265384732834
0.07359564011781199,0.20484592059362952,-0.29041532725055275
0.23195815710000567,0.21702022463875473,-0.21193417377882712
-0.22379146744170644,0.15790021295314427,-0.3518972269601173
-0.269648548046325,0.3205923217691081,0.34046125356601037
0.33535716569352436,0.1288311035891901,-0.09189618885349757
0.2517709159004804,0.21944964504002298,-0.21760079677344768
0.37592742503409143,0.1326195856726077,-0.24836787700497806
0.26672858462859733,0.4219896462253545,-0.00033061142288864573
-0.26535566896298807,0.1587809320060094,-0.3313393918347678
0.3374070645326904,0.05408863176450706,0.12525760121541313
0.020485390238617437,0.8108021184250056,0.005199540245500567
0.19034447465577037,0.8064857918571469,-0.2750178920465941
0.056728175728212225,0.22220891255568415,-0.3447779846163803
0.21628569341055134,0.10469776765146563,0.3260990335499196
-0.2477601052459598,0.8061562985913208,0.24395024182740138
0.25017809218558995,0.20398110859730945,-0.10482789598161588
0.3951925800511581,0.15572839905402314,-0.2721078833961577
-0.0028730021278440335,0.8143319386417215,0.3507368296138447
0.325851878849878,0.14322966697536182,-0.018696500209648255
0.09333262299027943,0.7638442050230992,-0.3345181013232035
0.05077462506118735,0.20575745870186396,-0.07153601854808198
-0.24590415178857905,0.15295136490858335,-0.08207650578854675
0.1958058563141593,0.2498485594636655,-0.2635308534128361
0.24251884145668057,0.2627210894426072,0.11014051088303288
-0.3435822766868724,0.7971213508549801,0.08079360732174208
-0.07978614701279088,0.8139757442011271,0.09440259431699982
-0.21105208187469515,0.24684575620066235,0.24561288481699817
-0.36438869902911436,0.35509263425594534,0.33626767340129265
-0.22746093383182944,0.17964475655247636,-0.390192668275334
0.030515482378039416,0.21746534894785657,-0.0385948407248079
0.33148665441540703,0.8152637610433334,-0.1309404455952524
-0.0024836021887790494,0.8120526877651294,0.03454216144651939
-0.02654372192950464,0.7129517862190942,-0.31002557340359077
-0.3511902385610155,0.29303208338963854,0.23374233858429472
-0.1362403529099609,0.31193540807464,0.44777878743632554
0.09868590124047688,0.19516487117347542,-0.0201199162955265
-0.07513438666914535,0.2183680544853523,0.24672449605218755
0.41739266550987636,0.05882138948553041,-0.06835631396752412
0.12926422897028012,0.21560926456791182,-0.2790945261331129
0.04470472826221557,0.22467857384170553,0.44207809459416564
-0.11934519192207549,0.18476887138199508,-0.36357648394351827
0.3012135049164234,0.06388927698082755,0.21094927697852014
-0.0767784328948436,0.4973016120747047,-0.2150030925856906
-0.22847335476573405,0.6534252700949194,-0.17125403939712294
0.3220998985999173,0.6459591728748991,-0.030463582491455636
0.2518996669595392,0.12684258235187362,-0.07026517870505614
0.05382857744891888,0.8021471340577988,-0.3168832503081016
-0.027360463304779172,0.8112611056802626,0.023296657894994122
0.430029210018436,0.10228250070810649,-0.2100163384167287
0.2438750135334906,0.1732883233445947,-0.2474707648585733
-0.09433700171558158,0.5452374110245584,-0.22354027281573804
0.3546247440202995,0.7221524759033899,0.09775600781195337
0.24381237677847156,0.1865148500792491,-0.2765822324723212
0.376273361982453,0.10883694771885408,-0.11364118659450748
-0.26840438046899107,0.2061936374539061,0.10906703309491797
-0.08702015208783782,0.2544383262702841,0.3695708587718596
0.34029849721582445,0.2122338416801717,-0.40776576263717706
0.257639054558831,0.16607016490495125,0.14526931914201155
0.16252963621725694,0.13567576200527684,0.22692163019915154
-0.20686323183095112,0.3647564260596693,-0.0679033813737107
-0.20338255780446002,0.5633554003198432,-0.14544626377526015
0.25281023191697044,0.19819766082770576,-0.12580878310254207
-0.16677824957628934,0.8038066130684789,-0.23074855545962175
-0.09100753247399566,0.8181243612856958,0.19222905961190795
-0.052331760490582295,0.314031536474415,0.2510344330979264
0.11773331180604085,0.8091264850563821,-0.13111388700045018
0.02067553340832875,0.8170407919849808,0.3295091482451769
0.1598655475678117,0.15646101358053147,0.32640574276318585
0.08344186003124979,0.8114542734651882,0.225068718362209
-0.06604710181124931,0.33543498494063023,-0.20543017789192047
-0.14871639709037884,0.5117250668118867,0.18013267981788286
-0.2866400002777803,0.8129371143807154,0.11081154879252576
-0.33916151454681287,0.8081343573254015,0.05186405187773814
-0.2209482294849895,0.8087216676938964,-0.06733650128909047
0.05111264168571836,0.20678620311718066,-0.06699828982580741
0.3078701475138583,0.15772172123103897,-0.22612011685486694
-0.2839030324039494,0.17087772101600138,-0.10403196074182498
0.31911008629416615,0.14002013313711462,-0.13033965725698649
0.26816737534309015,0.2503139630016578,0.08430776184007367
0.29013809878365643,0.2595734245298792,-0.10459031890782612
0.16771416222886548,0.14627586213855776,0.11673451493131959
0.3305748713184172,0.6614340583844291,-0.011151163385953592
0.35213630570626875,0.7116239241635529,0.027940818443316057
0.21262193948127908,0.7784788613738736,0.31338313238814114
0.02747468313916821,0.816334959542254,0.3222121159179278
-0.11396322457241564,0.2919351109079729,-0.2117743665488424
-0.1780370329605538,0.3770949497001589,0.13363160188415224
-0.10662641442654627,0.3584798362433043,0.20917477726177125
0.024695056084190245,0.8015479554165488,-0.29844956660651434
-0.3168785718935071,0.7506237384584434,0.08156668853387183
0.40734841801387606,0.07328150257564721,0.06649497149508932
0.29760574387390204,0.16787945196298218,0.05457960453368017
0.049139169244564046,0.24524809818100884,-0.35267043940268616
0.1443469309093488,0.19817652917329417,0.2624522750066355
-0.2614682895551925,0.628179474117576,-0.06544989621477597
-0.03208296064712626,0.19580665408922537,-0.3006963539385774
0.22626167735399463,0.16976809099831597,0.20077474922413585
-0.21294560338963217,0.659581711265323,0.16720213079658502
0.2545136411919707,0.569156346055166,0.1514344722510892
0.31572992136638106,0.1777733980870132,-0.3095025987484318
-0.3284349990018058,0.2144144819594273,0.11119887290460902
0.3202922740366736,0.6743707091000585,0.15999262973748374
-0.18648705206868926,0.3164910408940871,0.4035657444949756
-0.44516288699153433,0.23336772415063586,0.1205644821277137
-0.04755952184712832,0.8170922577680562,0.1785929953724417
0.11577499444422068,0.27896519242260315,0.23563856631734342
-0.31261732644560825,0.14158708325777122,-0.34763916275915163
-0.33794507912016286,0.23326096482753886,0.14223074509229935
-0.07441460506686587,0.3422569846938541,-0.2077281805041029
0.15336406998425867,0.2705469760235379,-0.30036792178955374
-0.26527516672033497,0.14753991573010558,-0.09157513350667988
-0.15714250967768936,0.4663112734219116,0.1603984160487572
0.22426760794039696,0.24900806726157848,-0.44608281072496975
0.4245331727547729,0.0569768515703285,-0.0722459630993465
0.28309900048077863,0.8169181146634561,-0.04195671734323167
-0.22849612600478755,0.1604418605069457,-0.05676788007186059
0.2901828735731442,0.24895921670746773,-0.12777065782506664
0.05036897815501198,0.42188366379346687,0.23081616354531836
0.4231200303299863,0.08898482408616688,-0.10827273272865633
-0.1827256446419676,0.17427738379688487,-0.3956389078056417
-0.20574618651804527,0.16023803343270157,-0.313459282894588
0.13863058657920385,0.8115541284829474,0.17227173644187233
0.017381405301745024,0.25216229402884965,-0.2338012954467681
-0.10766899650787365,0.7785658582959373,0.31932758704868847
0.4215112132240151,0.16431898432664765,-0.30322658719127066
-0.2159602546782313,0.2931443454439103,-0.08956441243615049
0.23631662418530522,0.8135407678508058,0.26296426905653086
-0.103320807628314,0.24431458936071812,0.24142516004047787
-0.2232808184896144,0.5852639420785369,0.09765713063278768
0.16971554779028566,0.14566851962710153,0.11387887729187349
0.42064613024772607,0.05513441777368376,-0.06210668165642591
-0.11462085316718934,0.29469269709395135,-0.21056861932406049
-0.30218703473847497,0.7098978543174911,-0.0008775252522530488
-0.3884549609926604,0.10492565611711922,-0.2056991906850743
-0.32066320674586474,0.11988390846773692,-0.3256829570901813
0.13327515423474928,0.27025018400723677,-0.24538471585202182
0.2576653111548126,0.09393762700480804,0.17589386058403073
0.1252306542248002,0.3348524191051282,-0.19862585426089446
-0.32060214966527767,0.1839915930446723,0.04450034388095636
-0.033635707869914634,0.37738397352018693,-0.21660249415547173
0.1991429782410699,0.1146154370978293,0.29583980328710546
-0.09750521196314169,0.1766641155599287,-0.2951790250037837
0.2724252023663231,0.2571907842248394,0.08660740710661244
0.3188030827162825,0.7110391204458711,-0.1306964239072489
0.0004895676195013736,0.22159697614911217,-0.3581307844960314
0.27810250487919036,0.4711328920803841,0.0434763856782327
0.13074614853683683,0.22464334964417684,-0.3563716366269891
-0.01087161361530574,0.22903791259319622,0.3737352733175415
-0.23013968273713287,0.2919291528887472,0.0663339041098183
0.17114505702784272,0.3678138783636093,-0.1612207671195246
-0.2603584899683399,0.2336593645938861,0.16149449093494567
0.14664343831857027,0.762383410959333,0.32944164807347576
-0.251499016306102,0.1350801133134552,-0.22366402311908576
0.21870327291150246,0.15700896107409357,0.21915444318953595
0.35851006936150537,0.03494167028623479,0.1708064526633413
0.3323791339641434,0.08856881773543054,-0.043843538523319014
0.010480953286591307,0.8126405221388692,0.07368174467596311
-0.0668454244686111,0.7301385426892358,-0.3171637433089072
0.06462412401125527,0.3734085112984732,-0.20808120977560132
-0.18485546324653787,0.8024881093637554,-0.26594127829736847
-0.07909922044229911,0.23351022607687155,-0.4175735824441177
0.055384400212304424,0.2497424091949794,-0.3701593008032665
0.02860222869657847,0.18107955335204967,-0.19129963493767024
-0.06136938971511695,0.49233574115335826,0.22623165135554713
0.10926977321448994,0.18866382190254694,-0.002766437799939861
0.09957067493545793,0.20719243905725362,0.2765063135137925
0.14850351014992666,0.7380442551793921,-0.3042774311928983
-0.22001336001837452,0.1857830973493244,-0.4176418906583568
0.2122180159862903,0.10759736419363598,0.3499441857267113
-0.047423799103896935,0.23019916706638904,-0.32712896390162993
0.34686524904695376,0.8206415508544886,0.04549069210914015
-0.16826409032480724,0.5307124856142085,0.16282516972238736
-0.27537316209169893,0.27434445240310046,0.2493094236694642
-0.12941317330422328,0.24412275273325737,0.26424382324412493
-0.055542462815727486,0.30024951073449824,-0.21811577807178356
-0.3943993660999536,0.2087378156721028,0.08714167204330295
0.25566771647467734,0.3124513509509339,-0.0715052611371719
0.27287321958195243,0.8163400167508005,-0.049008981869400184
0.16553441869250085,0.4876930327537629,-0.18666674087195462
0.2864966372325842,0.22825488065442043,-0.3068486859147143
-0.2670307001632385,0.6895270038284547,-0.14156789647343426
0.04758422819072133,0.3397274246067932,0.23684110626301327
-0.24306683366345597,0.7627898695893052,0.21569337148784445
0.3640230170432921,0.03941235422231493,0.12189615878913763
-0.29688672101376873,0.23829096075313047,0.15988747687664248
0.20860465142329057,0.23369816050070924,-0.16028029600769192
0.19037312073287932,0.24064599686608845,-0.19892821026618368
0.250354362887098,0.0840070462146077,0.26897550019633887
-0.0007691980464936566,0.22985437187752675,0.39394355367716916
0.24870442051757952,0.4914813331772711,-0.09984151417258713
-0.23852821869265511,0.14866085905831272,-0.12437722075706224
-0.1793306774219197,0.8073485831008,-0.13482342528563468
0.006707562394080038,0.21668003993329266,-0.26910766709731015
0.26966499662522514,0.22481244980287085,-0.14405698500596026
-0.12514188380405036,0.24503743926579954,0.23024145842448684
-0.424461427827709,0.15266725386870225,-0.09450394447659327
0.23510246063035864,0.21449214507622302,-0.2195217364835587
0.14518360082558018,0.16914052592744713,0.29913155360098764
0.08792450832947754,0.8080615224217546,0.3500008720197337
0.0794325434634238,0.2263023134717282,-0.35694006896228303
0.16393141852566978,0.5222683489542357,0.22033752362829787
0.011371707564900637,0.7654912303676823,0.34015098817883666
0.036113992651371885,0.8116362359082235,0.1067683442699427
0.22199719908666246,0.21534689209678168,-0.29501912585160445
0.06660508259960793,0.805948284472032,-0.196513505633536
0.3558566843252121,0.7389049638278984,0.17514285600323953
0.28937662105029544,0.11445651513908199,-0.062189226191167235
0.10015917204233901,0.20519008470148695,-0.2955826010515668
0.1785550512911208,0.1268841432573393,0.2212377425167022
0.0790591440012827,0.19628640574168754,0.05526276301059575
0.30608529008462665,0.6151524766951844,0.09237426864319215
0.30206199423713825,0.5333769512655732,0.07862357867011462
0.11893312379422032,0.2713934148020173,-0.4709444811106922
-0.24154695282327904,0.8079145913187467,-0.11087283544828266
-0.03637746660210831,0.2388040835504332,-0.3680213509842783
0.2745632847436179,0.8117913020880017,-0.18835822678232775
0.3499982741818687,0.7415236361960531,0.16937215116052548
-0.1509347674861664,0.26303799713057335,0.32616814778927095
-0.009282030811097505,0.3325433105522391,-0.21852035814988865
0.20862567400743054,0.14497216256338766,-0.061020866671531886
-0.019925427002661093,0.502705276373655,-0.23071314141364516
0.19537130894319138,0.2036058830453886,-0.30447375030242185
0.3243394124778379,0.17210909951716713,-0.27416079059502785
0.12729948596384982,0.21466654826711207,-0.2926011051930172
-0.006734499743048602,0.588866554573585,0.26200113529887
-0.4685594614013431,0.2040090308325667,0.06274062826828838
0.3150383790352914,0.14138779272605795,-0.2244988025723208
0.3776079974246974,0.047879385567670796,0.053286054845330444
-0.21119699198176994,0.18353200504439013,-0.42438529203915043
0.22741099358146563,0.10938109438831402,0.17375353758730297
-0.18668952592633306,0.37028778018324726,-0.11243276963871741
-0.2773965913512881,0.8090912874221787,0.207157254341428
0.05836080393527283,0.20098665412619943,0.07510012378871012
-0.20898160414721512,0.8088724671963612,-0.08402633715662788
0.042570300963369605,0.8068115895172283,-0.1504017076714007
0.29986061657736407,0.2584973154206341,-0.09078718864725463
0.11844758364722052,0.6011977770747401,-0.24355022841862603
0.020311727280904725,0.8076600094018977,-0.0938547613162592
-0.06526078291286698,0.8007037100300668,-0.27797312533635404
-0.26985499988597245,0.8088002370450584,-0.02742210550804112
0.27167769746174714,0.17545204702378053,-0.2731162549303243
0.42277147614963395,0.11589314635223068,-0.17817744915182848
0.22135503221236444,0.7165551150003516,-0.25189007157850607
0.14680444808687285,0.8142093259333857,0.06026984726992485
-0.2882497186066955,0.12889129175151584,-0.3038241673735869
0.33864409156209946,0.682290795941234,-0.00558894381485092
-0.04412278127956143,0.8111916285814471,0.024785152970856275
-0.005333146024313572,0.22070424387865537,-0.3224554077866849
0.10853277675879454,0.16173365707432447,0.27082782020874174
-0.10915701384149137,0.8013788859141484,-0.2491051205669259
0.18440355480120108,0.19786194951727182,-0.28774159310881764
-0.172386673322794,0.3906003192985244,0.1320757957238548
0.2057639702297429,0.1301633597606572,0.44015056394942376
-0.18204812268769302,0.15630480062883856,-0.1572191024371199
-0.21499394894111098,0.8092820910303105,0.011810229538115677
0.09975007347346156,0.7711556092117713,-0.3378250993181234
-0.24694774839670847,0.8074175513993211,-0.13140538898733453
0.3487325686932807,0.05917333405068265,0.22452713775664593
0.23406811264544194,0.0951751411707059,0.24826640967024904
-0.17807004441418708,0.3287017906896039,0.4377465634512704
0.23229124954182592,0.8144219013643407,0.21110106574262466
0.1576527263156599,0.8106599570855008,0.2524216617879099
-0.3608209714971007,0.2639881523357072,0.19234022505939286
-0.16671180814885705,0.19348716521039547,-0.3263373216068944
0.2811707479369403,0.07741132468107761,0.2062930559479779
0.11701440876847113,0.26846632886707034,-0.4975439994043053
0.17273763132909936,0.5964674453755044,0.23899540944017716
0.38703846387340035,0.11494353803487616,-0.21314710863085481
0.2306454540607892,0.7499928526532055,-0.27064200125029175
-0.10440433367673106,0.75907986969848,-0.32667927663545054
0.3470425251230592,0.0450030348251456,0.3081903093812002
-0.053393824033926035,0.8073574295353078,-0.10395892054790498
-3.091647519225943e-06,0.37695376855024926,0.22670448907816665
-0.39754201893692126,0.2311684836822389,0.09353286017042207
0.09465121195549527,0.44279827465023136,0.22452498137875287
0.3880193877799269,0.08701374920209136,0.07250946925803364
0.206993999305991,0.2012587939580096,-0.21568293265379665
-0.0341894094028555,0.19926119945428494,-0.31712750856124927
-0.2972748793096841,0.735494817766569,-0.14705871533327336
-0.008601574643036035,0.3741480840737762,-0.21888835631407058
-0.045330592364275286,0.2735472975173993,0.4562098114762072
-0.21357663555102907,0.7578702418227027,0.24120635228023793
-0.02021382663316869,0.19664191417924476,-0.29287651696330613
-0.12935555699125686,0.21166909775014692,-0.38127264480634837
0.22559477822106072,0.2406491789236749,-0.15041142216091302
0.2735797122173973,0.45274584224624115,0.001850571383659301
0.047324068964444764,0.1936521938809857,0.11732660311994013
-0.13854671180908043,0.21628713395797444,-0.4286233802239763
0.21636494513291107,0.6167069911179717,0.224581160139544
0.1861947357723877,0.31720033652305957,0.16560906816041862
0.1243956332411614,0.34578113224705925,-0.1995143566945203
0.12605676986306574,0.1534442064308296,0.20363460785485787
0.2548123755365882,0.21420209375163324,-0.13540418799742157
0.25676378416666584,0.46281213017510825,-0.07769608297008644
-0.1910524879389311,0.2819041972032907,0.3282013265031408
-0.04939427976708727,0.8151975563891221,0.11563962110291384
0.39267808062515636,0.7888750201323098,-0.013729945576672028
0.14894512275275584,0.6314371574735919,0.26212184927348936
0.044881291447903066,0.23322944212242597,-0.3919783147981565
-0.1465486686894418,0.1939310058530746,0.05996593370123584
0.20171769884153365,0.24806206025912164,-0.43492193325928497
-0.1549734951599256,0.17673413895836498,-0.37296705249154927
0.19954703625310077,0.8094982795847397,-0.19301218061625644
-0.41844845686449017,0.21144187274870305,0.0381522118173665
0.260042550718014,0.46498955014899307,0.13511896421714448
0.304698969714145,0.6555906044127755,0.1894688642240987
0.032109014967623,0.2194331705644909,0.39816218721672103
0.38921925764904336,0.008634608844060228,0.23100640615272816
0.2391085547393616,0.4614566130905738,0.16300722457488073
0.36459681682890893,0.14148433640575309,-0.20847189527630972
-0.09542904565961097,0.2666686534412988,-0.22184095827505437
0.10265638754306747,0.5945973262037958,0.25912909296463266
0.0023700920775133645,0.2337666614707526,0.2769014022527173
0.2917471332224998,0.0817044125459395,0.3673000374945749
0.30245346908396575,0.7654721930229971,0.2455312159135385
-0.09644113813161434,0.33516896222553755,-0.2090176381606854
-0.2954242937141258,0.1359320012413608,-0.12743555961250067
-0.13625432804636056,0.4345762491572101,0.17961584860675814
0.19785459490666374,0.1262445166031769,0.15949414071967558
0.0025724509456043487,0.2333690024449596,0.48086355489112165
0.32438399543630614,0.06563039532307423,0.10263095850037107
0.28746014679973164,0.7339376482862682,-0.20394204425868792
-0.03484023599493089,0.21986896227399572,0.33448482666700774
-0.17524236850722433,0.1561943353298727,-0.1761027853304339
0.16523805529228,0.16586759575164897,-0.08684456748922215
-0.10846888627984569,0.36011804455465185,0.20779821143975633
0.07839591949523513,0.8064588990858921,-0.1722560537242961
0.268564180851342,0.30051743045675194,0.020675539804609764
-0.08508094518547257,0.2187735272339713,-0.447084058944413
-0.07717922778983467,0.5171108749228013,-0.22064496543740325
0.27046009056923226,0.18052582718129628,0.06044781196053428
0.2571385195464293,0.4842010038606673,0.10322356947919821
0.22088083943675493,0.21004657100577673,-0.3254294572906413
-0.05407604347559994,0.6520322619006382,0.2700308432590639
-0.024734630118290857,0.1909573987750427,0.21383758365434496
-0.46390160754574417,0.2575286704915091,0.12645593907285274
-0.2661691043120946,0.17385384422473998,-0.012535540582387511
0.11586475502113033,0.2707081737929661,-0.2801058351243621
-0.11823459256234528,0.17717755000289134,-0.10965968813109433
0.17987986385101742,0.2804343325963602,0.19019864154034183
-0.0020405932622438033,0.2160175575761398,-0.32947951098066636
0.09842558208902502,0.7016279344715507,-0.29276040963183847
-0.07013216965404867,0.8098134648986868,-0.03673352652588317
0.17686926107585121,0.13165646321573707,0.43954326773509944
-0.18682626993615317,0.16733070299071576,-0.07054665010028245
0.2754901871085129,0.26701558900940137,0.09534558101028169
-0.04627523829371452,0.8200839270940325,0.3136785310676535
-0.2400690898448605,0.13945352158562407,-0.23724378646146502
0.24672857671860898,0.17174986970921394,0.15874927754395662
0.278236904867062,0.8105642821545831,-0.22995536026385663
-0.1954492828908755,0.6190776758289079,0.16291289176782708
0.009648630189372724,0.8035523074981121,-0.21292667211193134
0.1072812099009237,0.8071621326018373,-0.17927344434147602
0.28431657773221347,0.17828298244833066,-0.009586178777050865
0.103925777587077,0.6430910545918804,0.2775364313092014
0.36013235279345496,0.09976876627361213,0.07087250522515885
0.08915496928592118,0.19535115829734423,0.02320588987005613
-0.33788860829072914,0.1686196944353703,-0.0785726450658079
-0.028043477192424365,0.21052403118208568,-0.020419312900039954
-0.053927716223468855,0.8004485143401456,-0.28747048983015766
0.06934344810347078,0.5676589733587064,0.2575719851348999
-0.14791654598160617,0.16780709628812984,-0.20707838215665042
-0.2398080464615501,0.7941575861310478,-0.27093259593555674
-0.06484624582954826,0.708972054204495,0.2893614417461992
-0.15227758139931463,0.26225204874097385,0.30422228561196935
0.0671272989771975,0.4598343387501619,0.23564884481720738
0.3957420878040119,0.08624929143824961,-0.043746917273943406
-0.28284695839622254,0.7260501878779779,0.11587235571472451
0.35012549769929163,0.215815173115578,-0.4089555290728912
-0.15238958439475542,0.4297315849815739,-0.15638091631145598
0.21385503848018064,0.1079775764890391,0.4234416025582671
0.06146021572487108,0.224177636495551,0.46792836419534084
0.19055738092729674,0.2594363851651371,-0.3023184510773759
0.21741650160226642,0.3962031138983543,-0.11665326786737205
0.4408051897582732,0.013395822325256839,0.10478583078512506
0.21405120451831539,0.8149498414450727,0.15098962771711782
0.10944530481090302,0.29968242098950315,-0.23963919416586263
0.13109973802496303,0.15942415963051834,0.38916679817569727
0.13684170908133703,0.1717807590679118,0.3741677097615214
-0.18092636110429422,0.657310115463263,0.20226422490707907
-0.4247198254649345,0.322796100142471,0.2476233511896755
0.3394895606207581,0.7874061924406494,0.19101492322013916
0.1297126011534574,0.2692393396212652,-0.24593203009767955
0.23380950383336396,0.3249662274902876,0.1012349412815758
-0.07457778460751747,0.5992347444621274,0.24576497617245785
0.3397046752957791,0.13401096016785585,0.026361429500283164
-0.1123498952400275,0.3476676950373986,0.22034353383194938
0.31313608925881714,0.6053973574061796,0.07248270107982008
0.13667938524959272,0.8099146268283943,-0.12416480180555917
0.03558051047062981,0.7186466283692937,0.31166285246393177
0.09449498578281529,0.3184895177209812,-0.21890800328944354
-0.15613921200961445,0.8189859496681455,0.21785539681954613
-0.007125752164176477,0.4344767008977292,-0.21890030194094093
0.21625831863622533,0.26534198028300887,-0.14002593480070008
-0.37834295128812107,0.34592136254478073,0.32607569133222686
0.11175196202818222,0.3706771557303947,-0.19589411574182994
-0.13434400089177917,0.7373231080793073,0.2791559305928719
0.3159853776344079,0.21652357195162938,-0.1108775604710654
-0.24400462517271815,0.17358881068207732,-0.40177176081607197
0.2863375263370439,0.593672005670496,0.11031725082962518
-0.19605981338966766,0.18401406191615116,0.04589546618072583
0.3206340168454689,0.14477379632505588,-0.04527125212581539
0.346470836335019,0.7004415655374417,0.045755866703544305
-0.14114972543552243,0.17041452038880056,-0.12049264876785436
0.1982801452415897,0.3872310391730158,0.14790152005007204
0.3734631360803505,0.7894799859912797,0.10985805144537542
0.13246776724079853,0.26137974518249674,-0.47073020443060626
-0.15770096420683685,0.27726429403908287,0.1983434791199754
-0.0789020830061681,0.7961305425625823,0.3405834529292127
-0.40929908338035137,0.15684105567273313,-0.03745343262879959
0.10811462158365268,0.19553473040973837,0.2907887577416952
-0.14120988127446615,0.20078536726236162,-0.3249238021682322
0.385942030121803,0.028347668126640226,0.24520260735956348
0.015882223060347138,0.63411021230723,-0.2739919138807552
0.06669992584063483,0.17687383371372734,0.3531578690105516
0.36976119370153615,0.13771554914181805,-0.19801193339880765
-0.20995795941482442,0.8068618385166447,-0.1548689010334492
-0.056352489106281774,0.5110341309767121,-0.22577012660730997
0.24701319092560803,0.48953924340063404,-0.10145081536075745
-0.24975192264957374,0.7067855255942629,-0.18717885448058788
0.20313516465766254,0.36890216606508536,0.133706565729204
0.03816193102597892,0.39326554582780104,-0.2152275845973405
0.278200771159156,0.6833136437761536,0.19067045865438723
-0.07549774853322898,0.45057707238767986,0.21828596201428835
0.3715765322704492,0.12808171688193082,-0.235424179577337
0.11910513320418548,0.27097346871880873,-0.21540607359444294
0.09283525201362508,0.20119860942866558,0.4150412891885577
0.02856205329291457,0.2681299313502081,-0.4911165584942793
0.11631492502187712,0.2167231080342122,-0.28618672850413
-0.20151549493364776,0.48066534711563474,0.09014649768362483
-0.05519463971615904,0.25308999495341133,-0.2240409036227461
-0.24565030476295846,0.31913920084590125,0.3564697947466394
0.2624901253759041,0.09828011017956646,0.11719324690777173
0.20903094864470312,0.17282853128662679,-0.22383474550949692
-0.1719217116933942,0.21724293754973567,0.16727627073324322
0.040504471039433214,0.36939608773123683,0.23292369836928012
0.2357742478856642,0.5470611033339516,0.2004928909130107
-0.19676389300139605,0.28845674000745447,0.14679286495953742
-0.08526237920477063,0.6569216598428574,-0.26971382275446615
0.27308802491038486,0.6899949407836612,0.20374200143758336
0.20560723431534914,0.23262369480359754,-0.2845645632996251
0.1737454483532927,0.8108759264514658,-0.1272538439051658
0.0012126885983661795,0.2326529161874698,-0.29156231403913435
0.27530801741226923,0.13546992739565877,0.1574017685066658
-0.15612919540290687,0.587642561668686,-0.20324299420061204
0.33056020001886927,0.6690879011826141,-0.03176479244907205
0.004049915255413587,0.5003027813600719,-0.23121249959562265
0.1838733590522117,0.20936591990290854,-0.32076250707050386
0.08806321996667786,0.1973045842568309,-0.2709889838742926
0.07550675151254489,0.2768412350727145,0.2505600809743173
0.02071087074068476,0.22454904931536435,0.48527372959798193
0.1434134960687137,0.15196799342744458,0.3735523317361693
-0.09731647065967769,0.8210533906080728,0.28556071878828365
0.1782859884972154,0.20338287426562227,-0.29988134070526257
-0.12604105691383186,0.5410457880161604,-0.20882190105474632
-0.21542464938377365,0.26555093632676813,0.2638012202368442
-0.30301033725083537,0.7083987296210162,-0.020266018586258275
0.3611628289351205,0.04096651117225544,0.2876823397232255
-0.11415790702801362,0.2851329432333031,0.4132624332859729
-0.04529086252801862,0.2287025943469138,-0.22774741587985048
0.3025567800959348,0.1612534277009379,-0.08057948151014765
-0.3504280770903257,0.8004747362124579,-0.07081465808115393
-0.0010116657372925414,0.7547762847447054,-0.3372941443574618
-0.1298789887916144,0.30896092830915123,-0.1893816812256912
0.2124192559707318,0.8165674548208399,0.038095157444247366
0.17065812288829782,0.7240975306302355,0.2989573480974592
0.17819225771255864,0.14897579267678718,0.31614214077005826
0.14373107832559368,0.169539881317251,0.01877209006399512
-0.10812736844054514,0.26897427423368103,0.3880357752216381
0.30866894752810664,0.6522895405128427,0.17413953037269894
-0.22710155286198458,0.8191843739998956,0.24035431639471141
-0.08696037775212265,0.280075095921135,0.4810527533875986
0.14550621183674636,0.8138544575702716,-0.00038765527513264474
0.021581871284207504,0.2770240403633203,0.2608903839254387
-0.22938627361390046,0.5166987084817304,-0.03999861139812777
0.31150223999358884,0.8174287180260214,-0.05101478268483741
-0.19611180634110914,0.8048979653406763,-0.19029671006466398
0.19632053764626245,0.11978909750657758,0.20897496032561852
0.027692169659450955,0.527464843243375,-0.23949040360685753
0.26061640445316203,0.8164916321855095,0.16736222073823506
-0.015629917409631613,0.8145332449787267,0.10940448234791941
-0.2550779727616073,0.8076393225948459,-0.05634087081746318
0.0582238000592987,0.2484455082424793,-0.27106635388273476
0.18607124990241483,0.5542805811831768,-0.1927395071505072
-0.15890748656794787,0.18670078550263308,-0.2522103650068408
-0.05983490098735231,0.24228639585830333,0.35015270806384124
0.009350273758650052,0.1864235572525854,0.27780303405047724
-0.15284845514700596,0.2126086564079886,-0.43674251204920733
0.2634090532382477,0.5976781397726594,0.1860865339833195
-0.041870043848569266,0.812282963520961,0.049206723119938595
-0.4151542675154306,0.23234462833909902,0.08837906860997706
-0.40665885689741293,0.1353029700333315,-0.14617582809364527
-0.19343209360669808,0.8093890828145411,0.01905449737686862
-0.16992166697560512,0.8020919119782367,-0.2664396110721631
0.07420856199432863,0.2825823226516733,-0.2276742510992029
0.24319357648508216,0.1324974214936654,0.22832547556367663
0.19619827899544362,0.7694076364674249,0.31662891567956336
-0.022067526494721074,0.18278426232103412,-0.24102266727205396
-0.27984323891311025,0.341143086612274,0.3716930614686336
0.15496358865024637,0.1676869584113416,-0.14892771931329063
-0.07684350551376605,0.30709362346425606,0.24463357186338242
0.26797657871915787,0.14454484283076005,-0.19817279060011586
-0.10364912617368889,0.455486676665796,-0.19691731720911398
0.14256748543573688,0.8056400143147612,-0.25589140021921963
-0.1327831639213931,0.24842584260640538,0.28209862531231955
-0.3436951684071238,0.2515373065590352,0.15276163215009236
0.36314104169660405,0.7322594794015749,-0.0030416704674759588
-0.2984232692416567,0.13432313520714065,-0.13433794409769928
-0.25629011987732814,0.7318978233303698,0.17041871469959266
0.05282982443279418,0.45023940607268853,-0.22182839423781683
0.061612977673159645,0.8120432772630695,0.2044199597825728
0.051888771787974866,0.8122886468055566,0.19357661643390994
0.30912741006315525,0.1820714769347084,-0.31606821506478233
-0.1456828570116987,0.3283467973408866,0.47676037220570433
-0.04165817118790341,0.22994608001615438,-0.313135875302917
-0.008697355496148971,0.24472624466629814,-0.24303101751837178
-0.017709679950053944,0.26289993001923473,0.26482290498175615
-0.23009248319633097,0.7123701595528296,-0.22131240784797457
0.2966400627867454,0.5674374246815969,0.0805406619460664
-0.23181412609328764,0.32562385460721666,0.048989410359004656
-0.32937065279139355,0.11433511218337897,-0.286289407313789
0.18229199998957674,0.24560318265574285,-0.20428316590605147
0.23159606153634657,0.3780061237716186,0.11804824195924363
0.30101307172853087,0.21807382459686958,-0.3975580215471267
0.20670000148109796,0.4382121368819035,0.18317252985521046
0.15134815238609275,0.4842767625890822,0.21499932866560612
0.30298622737602177,0.7069515304635554,-0.15808420499839126
0.07700689234629883,0.20542772714521235,-0.05255523251257961
-0.1879542128412239,0.5259207971397177,-0.1492085981840883
0.20461372937917643,0.6818412232493332,-0.23977991098190465
0.08699807503630189,0.17022407148779323,0.32490918459138235
0.026581671548657572,0.19565784903357572,0.13117962448889817
0.18471228595067257,0.14201727699427544,0.08516253210198707
0.3330635859185775,0.11295994962353692,-0.11504958325420465
-0.23583101917186836,0.35051030336797667,0.4250852804680879
0.23355462157905263,0.13331565677892224,-0.05966765800059197
0.32561752166762814,0.7381778896704102,0.19831079480601826
0.2244487072179833,0.14071070746125966,-0.11949480403029161
0.321701494430771,0.049133041296393495,0.2278777928904523
0.22373883620429935,0.20251075019968393,-0.1769971850316029
0.2855541075871516,0.15676393386813964,0.007484425745047662
-0.2124553268214833,0.4302627666506068,0.030018393279678812
0.028016762574990556,0.19958241636513835,-0.1148553784806097
-0.290069785836497,0.13619257484850267,-0.13388468996604064
0.2575112451052955,0.16123257115285997,-0.22820406616827957
-0.04274504749741502,0.8071628930235988,-0.1024344559402989
0.0955875393432755,0.5178082842376159,-0.22685423335610558
-0.369416532467515,0.22982784684078972,0.10347486454500163
0.04079595828962155,0.31190413371546916,-0.2323938625165372
0.11060802864466611,0.24620454174861767,0.24155210893464754
0.04040000966815893,0.8050607977069071,-0.2047322177947439
-0.13449171243177765,0.2676193249513651,0.33865917205165064
0.39636366522036515,0.024773967970744833,0.10235090465789537
0.17424546629253246,0.2635560124535779,-0.18450503631002207
0.3608989710717271,0.11306561335661819,-0.16456431374353045
0.22781522299942683,0.09770719692644317,0.3282583387507719
-0.42414987540792537,0.18319725999440115,0.03419287881211777
-0.14568644150829577,0.3236655645755943,0.46185478667880847
-0.029407610213868347,0.5879441665433881,-0.25341748608013365
-0.008651006139374813,0.7247843238531432,0.3136744360747428
0.32334723390985787,0.2026778405448045,-0.37343724581950555
0.21748206123394334,0.39878205012753787,-0.11726721434956663
-0.19700835802059952,0.819156860129949,0.23260350461558793
-0.1555576733882536,0.24833315367160755,0.2640556718428204
0.2588744401196026,0.8141677697446343,0.27548207336942576
0.2711138899859048,0.25884620141451,-0.4525622087205177
0.25214620582692426,0.10836019066566874,0.37579168545775793
0.027767737726552878,0.22981785510146574,-0.3387524641169088
0.11062396096899649,0.41030157076930984,0.2139036939268069
-0.2517631030146224,0.7275972821655402,0.17109350357416536
0.3478429942674777,0.11338973831267707,-0.14396240311012654
-0.22871763747926013,0.14908891555237544,-0.136548208812592
-0.04280557690049289,0.17904833826387817,-0.2388267971982522
-0.04593030938956967,0.638848355600624,0.267268814302115
0.3473545431345941,0.13227963497958717,0.019344989199512493
-0.32661968099465244,0.27136966229791665,0.20470069600517143
-0.018139889429275385,0.2383537438563021,0.38993734033693356
0.11569295888236508,0.20259357860090585,0.27617808405341293
0.2529923958059114,0.2073201148548092,0.09282440752224955
-0.33840582490957666,0.7594996756469652,-0.0565627506982707
-0.11085626857590729,0.2766555491402153,0.3952164985994209
0.013805304572166562,0.2749671258659602,-0.22766532952372034
0.16539690998463288,0.7880922985185409,0.33916774243110526
-0.04988111640951782,0.2657292920595918,0.4237413010479967
