x,y,z
0.017261044129513348,0.9489431253812811,-0.1432779530572546
0.045128845025480535,0.8921907537743111,-0.226375152535646
0.05968091004954096,0.20978763172055157,-0.19376891981232328
-0.02129633886670601,0.7995369597763202,0.3273200884930922
0.3065579086100208,0.6148805093181007,0.030702124878462134
-0.07558448638527694,0.14699762326224974,0.2879648630709891
0.11082917584612047,0.3753547968426544,0.08568872398859645
0.07975102078026544,0.06755238503260434,0.1873406486599121
-0.07507028718883971,0.5680050007401966,0.06926814018066024
0.12585039435232157,0.7051583947324843,0.37677291324599954
0.33424168729744824,0.0020189800861575356,-0.1230251670164687
-0.14519896707160587,0.5606005468400871,-0.27237000742719564
-0.048317051381559194,0.020638024562245918,-0.3225767576051327
0.2756956391588632,0.7356868665555278,0.2938893469358169
-0.0003333068997236968,0.9877830841303842,0.0010499250657521955
0.08775965349861861,0.6030492676218991,0.19224089336584482
0.24123208391517675,0.8109827312020724,0.23233587597912495
-0.05806665739226823,0.07207191438306616,0.19463073525041263
0.1706937635373138,0.9701412856024958,-0.03432366709698283
0.13013439170707072,0.7456693884847971,-0.3808966342672737
-0.06315388806227325,0.5703639178406249,-0.12154937909966818
0.011194580345929656,0.595538010094164,0.2540229273451709
-0.03885932873893949,0.9494535179393246,0.1566872383055473
0.003996979713916745,0.09161012819394776,0.3003281107153097
-0.12608945930460244,0.2003555485419734,0.1091006244726781
-0.3417537456842752,0.7091827823747112,-0.20376257962325856
0.23141663448160824,0.11708131678541364,-0.1516634958706713
-0.058058528228513054,0.589591207586955,-0.4290006606229184
-0.1469573667459767,0.07688695311888492,0.027172565460606493
0.28150187231116025,0.007152957726698143,0.26159013575934187
0.020016022622367683,0.2167724412404552,0.1920456713310618
-0.289773809271249,0.6466943337778477,-0.3510687840249039
-0.31319307772265165,0.5788654771759821,-0.35211883354495455
0.33391438447483196,0.0154727766327599,-0.07370978766233394
0.15149338807356538,0.14836834897784867,-0.10076486901101334
-0.31046101698386036,0.8050590079022312,-0.012970583336293574
0.05387016965992499,0.8158234871756751,0.30097286086547315
-0.2446203276921216,0.16874387756966686,0.1596767592452512
-0.43334089691751526,0.5421567653810164,-0.13717236012578882
0.08495873033489403,0.12599006541081936,-0.1454165103302326
-0.025054904812241152,0.2548671619427085,0.2585768808634763
0.4514086542135457,0.6921517595253618,0.1091431106508455
-0.46423159093494365,0.5551134716490258,0.05232361832021634
-0.12908749669491756,0.6115045516995822,-0.4518172596981357
-0.34348912762960854,0.02645777048560752,0.0945466972122656
-0.4482562974906432,0.6369815011971569,-0.01288421005886796
0.16299092438204216,0.9659000785003948,-0.07637899101319305
-0.36577960144964006,0.5275412966792736,0.14350055741708492
-0.10039641624117497,0.15611371785214592,-0.2557118125827585
0.2567472209611919,0.914658559150043,0.042834151298230365
0.08110315235853627,0.39098099951986665,-0.07462893945424393
0.0007471012273625559,0.4498942539918102,0.1637454457296817
-0.09073908752688709,0.914798431190799,-0.1805559282944944
0.12454127597454642,0.028323771438856005,0.36270475014367
0.374927496187759,0.6869873831244618,-0.2789238792930053
-0.35722955747705853,0.7026756420219202,-0.17995808857660625
-0.32811105511472705,0.7003656099992662,0.26527692581452195
0.03861391213342436,0.9423143692454891,-0.15434034004981717
0.2696709471103347,0.02402606470560379,0.2201423191493542
-0.08585562511980688,0.48235802256399835,-0.03761586726043892
0.1266400959226127,0.36137681838741514,-0.02872518292838196
0.4652521977138906,0.6607939883046456,0.045026699686296856
0.07540776399910182,0.056231885066740525,-0.30128563874099396
0.21168771708932782,0.10267142232428919,0.24791186098205964
0.1395607684974163,0.6706814467599718,0.3912101652458473
-0.15987983100141895,0.5906364567878004,0.44069661150137684
-0.11410647572403108,0.05833358135300557,-0.17997806541031697
0.03901001435324471,0.5858470898829218,-0.25355361747339883
-0.3206100263638858,0.5828073874587646,-0.3478300478155933
0.12151210474183706,0.9525167518895695,0.11714103598243514
0.2047957443828817,0.04377796103403537,0.04585333670708405
-0.44391415489906794,0.5340183658454447,0.05589409542665947
0.45197711646944244,0.6566566052015954,0.08685811566691874
0.3888922222916829,0.7900385797351571,-0.03437348020369163
-0.20372430276372333,0.6321725707635639,0.44258174639441894
0.08564690015185629,0.9907098676249707,0.022636344391048495
0.10143880218512319,0.8409263613789284,-0.27906502019769647
0.1718793100466174,0.15976401335642063,0.20383220534622482
0.026648759260504758,0.45474090499824943,-0.09815100579203663
0.32235564109868414,0.8495804508580054,0.08440890480241481
0.11742241297389833,0.9108053660580095,0.17692146644862605
0.04408581556287428,0.9841669006292715,0.06098327862358744
0.035768975847720305,0.16760983278286512,-0.18055439619526076
0.06576594366827077,0.13376801083970946,-0.2512981709716027
-0.22851592441512206,0.5480654247369159,0.22660409234685663
0.23742855825263004,0.04334021520328588,-0.1661761622931213
-0.25224615067382794,0.8028443417903467,0.21481480424105365
0.1684001315241941,0.22924005149200627,0.10002187512577737
-0.1377035339479468,0.7424158669370811,0.37237641556902185
-0.09281252323634177,0.06164323795711404,0.23934368050612165
0.029165311839444485,0.9885006483404866,-0.054401503271169875
-0.06238529380992596,0.10027718554354975,0.173034906739432
-0.39618213386877865,0.6464072550723386,-0.1959297694546805
0.08804741647207677,0.40542856004289757,-0.06648067398324936
0.2913040147722828,0.025420062029235344,0.10815308780152946
-0.4177218945055929,0.5256543852830953,-0.0744613103542433
-0.3537391096488621,0.6206502842185269,-0.299424143530502
-0.03072014545198766,0.4361372311079295,0.15728338024020977
0.44874300030157116,0.7079494323712829,0.06889297935589342
-0.03490156406330574,0.5950293888799052,0.3524458422463375
0.2393072709822819,0.6109623019954108,-0.0068976662746913775
-0.10190164588040951,0.4530544194481322,0.0806275938611969
-0.08762946803196103,0.4823392545037816,-0.03240837196867921
-0.027136806528926086,0.08400697534430017,-0.14420251093799957
0.013010139839381154,0.07137157534031972,-0.2148805947171689
0.059925485239484405,0.8139063917600146,-0.3135325977057147
0.16372806919178925,0.45362048339797095,0.01366672201983059
-0.08702218439869375,0.16466838158716818,0.15700508552485165
-0.10854625598718537,0.0653691955226964,-0.10468160217277775
-0.11260638774109755,0.17184016288482715,-0.28005898356469616
-0.011050051433145419,0.9801874465623299,0.06582743300477174
0.10981024814316925,0.15327398300779507,0.23675977759978456
-0.4517832279710306,0.6316464332227719,-0.018334265531211688
-0.24701547339439311,0.7133658981746029,-0.32154213137702226
0.19298720406246483,0.7244010485633232,0.3389226453366686
0.01797415874312005,0.8020431749358703,0.31975672326897014
0.17511669765100898,0.8136878647625584,-0.28588170526610807
-0.19278389998340428,0.7047007268610121,0.38984965414650335
-0.14149061743915836,0.06401810122391757,-0.09014933199748995
-0.3812832190534515,0.5254537997893095,-0.12035599906031115
-0.09407766482457702,0.5662668108126022,-0.18357863435644517
0.1286330144706903,0.4913473521200464,0.06895354835337097
0.3462606125170649,0.7636935592956632,-0.21043591747377086
-0.3814151738257225,0.5332427762941144,-0.21369925630481945
0.39752391011846067,0.6326932239194407,-0.21295563661255532
-0.25829095348199577,0.06357363039843611,-0.054442139477493934
-0.261092673976595,0.5439927283659498,0.2539308729512842
0.30247800775107325,0.8706464128626683,0.06799806797113325
-0.14763211325204154,0.18195060185759918,0.04365640415657866
0.41063128554112793,0.7496677846246568,-0.09827059710473898
-0.12387303553785328,0.8222643465896412,0.2855573620306532
0.3803621539646443,0.7609368199581641,-0.16582941328754638
-0.08022236007117782,0.4672507637628362,0.07022295179153226
0.11110853211321521,0.15181980101024506,0.23492159434937235
0.4328136941809872,0.7341306507715868,-0.06157350265615455
0.19635940092051485,0.04343498081002271,0.1437723784726995
-0.17415365436962366,0.8593869939006765,0.21112203868097892
0.18463703013119576,0.04626910858142961,0.10219455268109567
-0.02321893019369692,0.3681574554515888,-0.08568819073868149
0.37470973852050327,0.6925903091278435,-0.27430297364504663
-0.07770949412082795,0.8803373795587717,-0.2246110571923657
-0.1918763036509037,0.550442686569403,0.12791942520687494
0.0253368942968819,0.4837090807860464,0.14516340424484503
-0.009499289851921788,0.34686790025639896,0.13257546197902698
0.3251820940875754,0.022570001613496562,-0.026021839529167482
0.12324380709219697,0.8278507516134819,-0.2879152837319322
0.38236002316186846,0.7483940599551986,0.16731217514264854
-0.12116095930587861,0.89839379904057,0.18084147466717193
-0.07537994595970417,0.15309007147554166,0.2921119823409174
-0.465496502870203,0.5594348165330182,0.07324776984640316
-0.11422173478171582,0.17044727984336386,-0.2759840533374272
-0.4405898882222423,0.5467861218578492,0.14907767829185023
-0.19637987544779528,0.12222395401288616,-0.1351600272629822
0.1570434886068785,0.5986084063841638,-0.22584490098892473
-0.008076871047750973,0.4160689249868496,-0.08495263609521209
-0.35386488592599585,0.564371286558712,0.32940508210010666
-0.28319853992351035,0.7453932108085607,-0.23539612230261292
0.047520395270404824,0.4586707482393431,-0.09340103874709368
0.36732420545509076,0.6606471361370299,-0.29175309388345727
0.13046762304554466,0.3482520294514373,0.06647052621302298
-0.2826847555074236,0.6466306278521842,0.3898303484320376
0.44840090892493745,0.728271872140364,-0.006596063873712933
0.4068649460770209,0.6860744509276739,0.19768843805699893
-0.01425345953297507,0.5530277262623517,-0.09175110897281764
0.010008292144879437,0.8789089885260425,-0.24219152712344275
-0.1736579311567429,0.889259122446088,0.1443324482995281
-0.23869423381366162,0.7158633104486122,-0.3254803717501536
0.12957509813244444,0.44406800152201076,-0.07890917650993517
0.24354918146561208,0.6079365775129127,-0.2056946616307505
0.20866474398997845,0.9102909356816316,-0.1382053693109895
-0.3613702330723405,0.5269283677415671,0.014719481357353233
0.13751167683863447,0.9803053610146784,0.032222213698732294
0.23101622634173608,0.6130292955530502,0.07869044203352518
0.11031603966035719,0.946186619716693,0.13276780821718975
-0.3206994328604208,0.6764691763940572,0.3186372019291188
0.0841428519772118,0.9902303603830506,0.003962452822448876
-0.02004189973754577,0.46335626114577344,-0.08909839946413659
0.17636327571507993,0.048620586683863584,0.08431106079391325
-0.3816249436493821,0.6922782775731013,0.17327859745827628
-0.001389084279006943,0.09930718465643504,0.30189942388136753
-0.22947436510676542,0.6146678220073247,-0.4163455186419165
-0.13639372629487656,0.2327391718905293,-0.00017617217975987587
-0.33609698563176493,0.5302286555131052,-0.11592794608676091
0.08663362847537401,0.6124167012526492,0.303116409890253
0.07001580120086356,0.9501725551336869,0.14032710408085675
-0.07745107866590482,0.432949590216565,0.05412323802848213
0.3399247577111507,0.6289960092652712,-0.2916725824662259
-0.07776676648628308,0.5962326880931416,0.4149074385781948
0.4124202901973603,0.7633250201238252,0.03386688757183101
0.23741287082802282,0.8784482145062047,-0.16019655431843688
-0.004201082284969945,0.596141564301892,0.2943791420955215
-0.024815928221106513,0.710413936502211,0.4217772261103307
-0.17279678438717205,0.5659780464909966,-0.3929335421617755
0.43599518361401723,0.7214184711044523,0.0897340362545875
0.2650401235601615,0.09250367767455801,0.20034824875129859
-0.27266057917451186,0.5424977954485465,0.2623524152578769
-0.43454100144759866,0.6551274891659488,0.11598506894578624
0.2549568150979035,0.039126622839900704,-0.178709741419014
-0.13903702072616475,0.7568792523565754,-0.347974893005223
-0.041473544526544205,0.8760447666931989,-0.24434903827752252
-0.21451807470632867,0.8970222449791352,-0.010852996592840947
-0.36992756312540437,0.5648809820968625,-0.28921987492148
0.067730481622389,0.4764201433313862,-0.10707159574656709
0.2442124524122941,0.03687042311546937,-0.01396500954947608
-0.4063250586278253,0.689753735295251,-0.03859468796301946
-0.0840181622422052,0.42650471415389474,0.030064289542476072
0.019907806159989397,0.7290415672456386,-0.4105375635582293
-0.0012714187445306557,0.6992591808106435,-0.43735750778904825
-0.1276743309305015,0.7020320670193584,0.42694848542515806
-0.35477831444124164,0.5275553577400712,-0.10321653489944783
0.25416452756808755,0.8703250043559264,0.14126860767306498
0.2203076272467078,0.03818293897526692,0.2244878730842173
0.17217233956287167,0.2329644311603705,0.0805634954497772
-0.050104716401270476,0.8364929190769741,-0.2868429779159483
-0.47089452970816026,0.590828103556826,-0.02464421179684507
-0.13616713960767854,0.7423779574458639,-0.36743212460883495
-0.324644014714256,0.6429273479083047,-0.3208675439179152
0.12721302096099169,0.8426333915500798,0.2482646528541734
0.35512411669085064,0.6156939692817717,-0.08735813938376862
0.09068648107416885,0.8380187841715762,-0.28420997442974205
0.22434798264752945,0.609296729769028,-0.015158586753454467
-0.2293929599430862,0.7975843217124431,-0.227871298592799
0.19258112177868197,0.10762258165350738,-0.02091857251276915
-0.33869271808815793,0.5296501363715307,-0.03770861890552245
0.0114100313933354,0.18867657088322046,-0.31112196122479174
0.04817593357150882,0.705050249867285,-0.43109533574822245
0.1281459056940981,0.48311897714574326,-0.0279316063261525
0.05458134147946497,0.10308497134967987,0.18987742612513345
-0.16281124521299012,0.8141126893434312,-0.2642531679360711
0.04135705520382495,0.09743066149868665,-0.23263409346909408
0.07557098162821535,0.33808310368014177,-0.08911519298132771
-0.19717824923695526,0.09748771112986623,0.13858746691704021
-0.054746454660127425,0.2851738383105028,0.14018548342888576
-0.24678519862187936,0.6702090614281323,0.3946500302715631
-0.47313569509889997,0.5764188695642976,0.03846674634201398
-0.008269397385371524,0.7543341992976258,0.37308581470489494
-0.4126812640013432,0.6162772112441325,0.2505350531953395
-0.024479126421389608,0.7675201792926906,0.36259093946063836
0.19477410669283401,0.21270045183071626,0.028110191094886647
0.2353544153512136,0.830141743684013,0.20776524344064862
0.11558848468273433,0.5980846125766477,-0.05413135354817298
0.05024820122866733,0.9450150140831307,-0.14951605975626783
-0.4225281231101291,0.5345048697794429,0.13749341531350617
-0.00985337491108483,0.294037971677903,-0.11242562816349388
0.2238393577929318,0.107880095733517,-0.24084997619979812
0.25500164549145565,0.792850089910634,-0.2701559365234059
-0.2329752237835018,0.1635890901758428,0.16700520942815378
-0.10309929306607327,0.5672008581578877,-0.2981239371006481
0.043179671101089556,0.9163873238949782,-0.19242719821560683
0.16975148373850613,0.7536626212756249,0.321595464249087
-0.38262576393453784,0.6630356752838434,0.23659695729332492
0.04830251512321547,0.07363693266634329,-0.23161898392417002
0.007766522040256484,0.10297971389642195,0.1933983963080797
0.24046161724904128,0.011352210628415052,0.30308686839869187
0.21267706130372588,0.10099561707265176,0.24536143735737978
0.19980609482915251,0.6046775974607779,-0.1253414326472279
-0.1766533278920396,0.5527301995498627,-0.16070587583172358
0.21812051216711573,0.8811953699972879,0.15979166857679586
-0.22922657560299445,0.5454869435925961,-0.1610348464488312
-0.09873170448160558,0.5628053832392453,-0.05152790780349614
-0.05678109004094071,0.5720016959390833,-0.1595686915005537
-0.0044857066749856706,0.16671672435749782,0.1938285341845043
-0.051175599302908124,0.583885666007013,0.2463707474085572
0.2298513130644341,0.6299101912699194,0.24009624011959038
0.42817789940453904,0.6245540394504169,-0.049149526643472004
0.19868320155961783,0.18840681831009617,0.2266201300186465
0.2809399423488147,0.7091402026970801,-0.34661609644177094
-0.017172211832327897,0.6186530225591073,0.4317423695657186
0.07258179200456853,0.5976304409671856,0.15610074795837298
0.015316553606492594,0.04672531447627705,-0.30753253548762555
-0.1525201197539786,0.68091516777536,0.4295648533130065
-0.26810254532750766,0.7972138143969765,-0.17089288483365342
0.12595721711244026,0.4264586555871354,0.006983530868820358
-0.07994661082777925,0.055747857242761434,0.301762234509829
0.12352600830400445,0.12205049329576848,0.16817345647643045
0.27216045304120295,0.033227884360829185,-0.10675959180429594
-0.46200340615574187,0.5984661703584593,0.11688756881401066
0.4689802996164841,0.6530596910130723,-0.00566728711905462
0.17219402350198448,0.739889537162343,-0.37482065265778375
-0.09348235193210722,0.9648747295668921,0.003552840813061727
-0.1460443135821469,0.121027973639984,0.3907237829127338
-0.16598985209026001,0.5549608272197476,-0.19921420100612597
0.03649750734886821,0.9493881605433616,-0.14277817656192174
-0.38231372526490615,0.5711446671083052,0.3037821951756282
-0.09595200252077013,0.3037058443129375,0.08846573015166902
-0.0795038816097923,0.7264824952865018,-0.40649540472163925
0.27715752705025276,0.7179899862565712,0.3063886699750313
0.2052510758247776,0.050231498725244246,-0.12875663128311732
0.023174136689828845,0.9873762724696378,-0.05773464180662283
0.015515483529191187,0.4860402940163114,0.13607592480406966
0.05005822906360806,0.6137085996271092,0.3799150580458837
-0.07859415614960175,0.13254884393220734,0.1656155429095356
-0.3621915300013915,0.7366711624942859,-0.08951694672990258
-0.23374547457046613,0.5443798313954205,-0.12405389279298054
-0.12145244567396912,0.28088864430208016,0.015895189381202893
0.17900086139143345,0.059079203456888565,-0.18880050684950883
-0.07770739568502621,0.21984343833175468,0.15286256086939728
-0.02078182605231049,0.582042301188087,0.15387715552970813
0.40142542551260263,0.6846229063942172,-0.23897827830731572
-0.13175287891392456,0.5864574049407725,0.41853217394429515
0.04964442498841681,0.29789458929312623,0.1523528173674541
-0.3189981329176914,0.20731637372689915,0.197702106050814
0.0361848764216539,0.8968218930021908,-0.22124123610612798
0.13622887870536557,0.2151362102632617,-0.10028417537953167
-0.46608498118653735,0.6015906497974337,0.08723626181498623
0.08702951195027273,0.6290421872785641,0.3945914779938829
0.12175964239579519,0.8091456574066231,-0.3099334062733117
-0.05892653742554703,0.0649048206163306,0.23514461390992314
0.08223113070917747,0.5530359668226781,-0.07797496007909793
0.251289163622147,0.03690222472965593,-0.06535215380776506
-0.30785390575424876,0.7061174018663741,0.28703112271199316
0.019480481187529063,0.8300668587641918,-0.29879427603418895
-0.08142447396307032,0.4312280279734972,0.03795989054113705
0.20175257585535997,0.7796538031463591,-0.31915737769287805
-0.4060783688929684,0.5459597140977259,-0.21034116987706927
-0.014988132755649992,0.23922350901532172,-0.13296450880039476
0.3768804028449442,0.619307560208743,0.03327472435241975
-0.47435347315061344,0.5770341806852773,0.01657488489957369
0.05760219304137208,0.9588172880996798,-0.12731431139282895
-0.14771742598117474,0.8477171943955754,0.24237900765647452
-0.38643399998280936,0.5267855881092581,0.08414829055980909
-0.3536742947751383,0.5273821154052347,0.1583290682295394
0.05570114761360287,0.8730354122653229,0.25619426436127446
-0.13599142809006862,0.07683094073203872,0.09458955581119738
-0.2602095033881565,0.06155554333733719,-0.08226431198995933
0.16588771453615586,0.6046303980113493,0.04693586483375206
0.26096263433672534,0.9112820403396045,0.042492248091329135
-0.40699607166222157,0.5239896126452055,0.06015744277617811
0.08808592073059457,0.4716645026137466,0.1070173696336171
-0.010324398428566153,0.5232929956961543,-0.09297045601989132
0.0733924502112911,0.29932464690893784,-0.2596484042374016
-0.053040434346761194,0.7563269299287653,0.3780915911514237
0.03277088905772618,0.5750879916770105,-0.09659077118865121
-0.16400843263735043,0.06552008392066115,-0.06895862716006952
0.03184223095023836,0.5971885963643055,-0.42922388454072297
-0.18603056702127957,0.7931890262357199,0.28613893873187374
-0.40257075200927517,0.5935539804464934,-0.2472798014337823
0.06604198187521318,0.13133170941232503,-0.23514890180107828
0.3099299036764769,0.7867474599389314,0.20644124072083953
0.3149884159850412,0.6128106927466467,-0.1536682412194167
-0.047359405242461405,0.9042061290610511,0.2087999647438833
0.019029989241430456,0.699140406865947,-0.4363709819988494
0.4289119113354973,0.6916457981221618,0.16055778380058922
-0.0434832918226651,0.2578233776830425,0.19904569280641235
-0.19330200374923354,0.1159901824508194,0.07072302127116598
-0.09359550828386522,0.37068269338381876,0.018947328957017236
0.19112911849894623,0.2090635405989802,0.04327896209840257
0.2972290298636843,0.6157923340368863,-0.27227812871905605
0.13296586496341442,0.06054486740946761,0.14788781914846122
-0.07565932714100489,0.04636772604658361,0.31784793911749276
0.27813597739503315,0.8411591183241334,-0.19387432979530186
-0.16562899268560383,0.5588795094114105,0.19761151817369654
-0.16475159486828672,0.06413844777154415,-0.08266226307772147
0.10484429814555651,0.6174271095819078,0.325720033652148
-0.4747841489976819,0.579794152776155,0.008609405497405527
-0.15229492896924277,0.5584977813406026,-0.24202589889638684
0.43973740338843115,0.7084969554846908,0.11640492911626449
-0.10623239769744348,0.5650018627850146,0.11543733579951843
0.00869786842827366,0.917493263729389,0.19448164566919712
-0.4071839548521199,0.6842858313906476,-0.09408428908025222
-0.13385860375860728,0.5826199683440614,0.3986591716058866
0.11670090190682511,0.6153205690961245,0.2790454975312196
0.1705808599238173,0.619382001290962,0.2253307367038851
-0.1237271384419131,0.9359095943683197,0.09300527297808915
-0.12065099198576637,0.2760310712677435,0.004917290934343614
-0.04531171815305496,0.22120412018270005,0.22291542955896715
-0.1902228329399093,0.052828098355760834,-0.19056147528654432
0.43423278148277766,0.6540489738435151,-0.1803255059808878
0.3258581266096051,0.639605793283105,0.22818912952242884
-0.2925854510418501,0.795259906845996,0.16059939468073928
0.17471008376530775,0.7176632408075071,0.35293827386208554
-0.35605534076469164,0.721213761024293,0.16505199039737833
0.12236440802805411,0.9004705807508431,-0.20247582745621787
-0.22836260291816385,0.547959779613629,0.22349429361684497
-0.01609135313067964,0.6594793993816929,0.44879049350100525
0.28668221150869394,0.6399060431657058,0.25532185777826605
0.10333296128415492,0.3398692933910443,-0.06707178493095325
-0.028345615557691585,0.17512974874582812,0.22221420595350092
-0.08230754079043158,0.4598538555347982,-0.031825264301938515
-0.24038799222419716,0.6415528528837164,-0.40083391093675547
-0.06882099431217846,0.8870325713426875,-0.2216354869448719
0.29069778498922316,0.6153106528498287,-0.2860601889952006
-0.060622158355910595,0.3683333930958335,0.09677738744754907
-0.10437245956103694,0.1371347121360375,-0.23371441425361386
-0.2591030197562557,0.743877469117095,-0.2668488314067285
0.28098470986328783,0.8770212728849944,-0.11185934679024927
0.2660486866975867,0.6447763149551662,0.2846482830400063
0.1746121484994526,0.6772278718091637,-0.4212783441196442
0.015682204271688628,0.19414887404292716,0.30174038178587226
-0.09054527621138862,0.8520620326394363,0.26249455530996546
-0.20259666353636782,0.7944904235928683,0.2755724567627856
0.017400996305397348,0.06634288864517357,-0.2747416536982281
0.1301191757399371,0.4605228421221068,0.04157823790600429
-0.45606677763421566,0.6302105781531676,0.024267017833050894
-0.40324304666213306,0.6502361684498403,-0.17073424368407178
0.04564185621532973,0.9451446583025286,0.15149564266058074
0.29697744089318434,0.8674129420705116,-0.09558871057580748
-0.17830837676810102,0.5511098698920841,-0.005009749239843913
0.1097728397703075,0.6213200653837605,0.3680054835571579
0.025339071047527386,0.23106074312089472,0.18650676314805517
-0.2946233321494084,0.5451321851720352,0.32088502535384217
0.32300022062014405,0.6683605016212356,-0.3383138189653499
-0.10897281562984633,0.2792433460598629,-0.03458037457127601
-0.4659120048752508,0.6107885233368757,0.04801585462173882
0.24368506125219444,0.6276183801950347,0.2158045448265813
0.29549267980237287,0.6482418715116248,0.2770467445362574
0.30454172256588774,0.025318762616384577,-0.04908860792491761
-0.10392899299238545,0.6496816695596807,-0.4546334861581729
-0.30098894853997815,0.5379232141035254,0.2556236954616574
0.23831740840778412,0.9082571736240873,0.11376613775167779
-0.18975106092858754,0.6680940405273313,-0.4117270175898398
0.38149871009004144,0.6225361625399526,0.059270104965108
-0.43647865539569003,0.6535825603789757,-0.0072964840702617675
0.1996367957155112,0.046970710290593715,-0.01737220686027281
-0.04653746685079113,0.9383231410843076,-0.15572187452898084
0.048948709783381825,0.896863302106361,0.21124795934326732
-0.013688821138292642,0.18500602663753518,-0.14731706090830557
-0.0020713966841248987,0.11208330109776636,-0.24521910099567018
-0.15105637952919385,0.07043995563349383,-0.021915495312743102
-0.050890188753195204,0.7824385942711081,0.3523098837297539
-0.08539490409477124,0.05891411995878135,-0.2195413142785136
-0.25296556169826484,0.02219550717441373,0.22546489259959204
0.28039504773761403,0.6104681136269932,-0.18165508630941535
0.11538224550165571,0.4924609176404434,-0.05566183614166372
0.3502291262835418,0.6204793314311507,-0.21774578562420674
-0.21901602244052698,0.11331685416972616,-0.13688715330344076
-0.1583659171744194,0.9318512616910738,-0.06226063878730188
0.19947999658997342,0.7714587919586262,-0.3310510135002378
0.02894023970517505,0.8619473192853258,-0.2615198624551609
-0.17593476035796318,0.007196640807871631,-0.2989912788994354
-0.13933664772112206,0.05152145422796571,0.2765526107081504
-0.2995622398617235,0.5682033035613008,-0.35575820005758957
0.005634258118054035,0.8986811509648358,0.21792420573452606
-0.10714131378177828,0.564160281296775,-0.18572618953202266
-0.047303498476207614,0.5744314269947723,-0.3488466764493645
0.43675588805517584,0.6316587711576043,0.05793911618385115
-0.4032256979402247,0.5248053234901916,0.024478224923963184
0.2613477107760902,0.7045866429405134,-0.36544155533454453
0.09227372738711609,0.5933133788894803,-0.15785031382541997
0.244966380097105,0.9297610929839807,0.022808941685425903
-0.26577098050486336,0.7498165940616767,0.2712795421473724
-0.2122004576356616,0.0065277197337288845,0.2884703360176849
-0.1441990057512062,0.5638175620368046,0.21658641370168813
-0.1539241048516541,0.12649110917047757,0.027341604030731353
0.07247430369011922,0.9903369438448322,-0.025368504644338964
-0.07377362989075638,0.06494841148282375,-0.15836684177219337
0.07322852290105061,0.06846493487918832,0.2563071537301538
-0.026028561278919622,0.5777121187332429,-0.18927711776919942
0.16410610233666753,0.0632945094951494,-0.2114213110388956
0.2254176313462687,0.10004690668583005,0.16253084115619065
-0.10974916622710473,0.43095814647946395,0.08603293542778344
0.06518512125170747,0.07544227240665771,-0.18212277091202195
0.3107271020547082,0.007334665407800703,0.23735604112458245
0.26458757476696404,0.0953661854090021,0.19764947293431287
-0.027262568180947473,0.45948218517392964,0.14560985520431038
0.06554290137032381,0.06371711229335908,-0.29612731717916424
-0.042550641669465955,0.632709319709115,-0.46266337933542867
0.08896196654602845,0.12863544001004834,-0.17410537563631054
0.24766308117181807,0.6080294703255057,-0.17295230222664298
-0.18437517993844388,0.5507386444245248,0.09984418965276093
0.3401383371370846,0.01721301304064688,-0.026560803623057988
-0.062332756675487815,0.7766939669452539,-0.35284635131656733
0.10863496339529546,0.31695305958653414,0.11455093204749886
0.2028149330816097,0.031456855838198836,0.2910081650915917
0.16533317716777016,0.6109011959255709,0.14778918744315528
-0.0775847361284068,0.7930882783131736,0.3445052320286134
-0.32058800052830555,0.6878160859377814,-0.28271357108359163
-0.33014775966213733,0.7843247541081744,-0.026912780460681553
-0.09166324276556057,0.9545935623036859,0.08469160844890986
0.03994622159191999,0.5324418108359668,0.12000486022346726
0.06828356822026486,0.2386184655202019,0.3211042457845498
0.1865262889581152,0.22639172456493656,0.005862438049705751
-0.043478110748289896,0.3335459611055021,0.306529063274058
0.15254836489445384,0.4719366446219732,0.044586458249382926
0.07075553626208217,0.9935315240713744,0.01415759255716675
0.3690793101603223,0.7437217414083509,-0.20997701097850166
-0.04919908617534013,0.6517937749359637,-0.46120832249515253
-0.37082120769200777,0.5620600650304183,0.30865229704281805
0.28506198024970497,0.61182624133205,-0.24842750392511642
0.10484789964249248,0.16606328442056995,-0.26579598162524487
0.005785940843587724,0.3873047878557564,0.12729325198252261
0.4177841002473305,0.7563931842968233,-0.03751320853201663
0.07166334033399047,0.45806976075068717,0.14725834087495177
0.2931250695300632,0.027083329835693868,-0.07204236088282208
0.008645653270952049,0.18552725862611705,-0.3067838333793785
0.1949828746627375,0.9406027534075324,0.09707699090024394
0.17202895895136575,0.7082221176074758,0.35966236708053984
0.25438913770305366,0.0571999934996444,0.16129950545030777
-0.0118162622271985,0.5798404508679353,-0.21542250933048285
0.15956092800608007,0.1252416610352218,0.1335379465712136
-0.29331281002790877,0.615766312368524,0.39908781029245344
0.1161799629989686,0.913407497366585,0.1735152654134136
0.35868683766778475,0.6163455678534201,-0.11677676648735105
0.09381225659803491,0.37586645685391723,-0.065285604499236
-0.15952900277162535,0.07422688275635225,0.10357787524145742
0.19544605337185716,0.18729181329682035,0.22472966275646764
-0.20474016783255275,0.1345542888077261,0.1591842336791209
0.28790721013078385,0.6240492089540102,0.15253195844759926
0.05284332502769813,0.44259321965483045,0.11710600095712391
0.32499572037745145,0.6385029850032672,-0.3247540214163679
0.14461072586136547,0.2207551447497943,-0.08895269810009221
0.193058101330499,0.8358338299286056,0.228188493409599
-0.12118401070087696,0.21464107506538133,0.1103139641693745
0.04503286031371431,0.6063188351914405,0.3155413636319683
-0.014876317050853129,0.2139253614747031,0.2114224648448087
-0.175395965778993,0.6823427732452537,-0.4065057441119837
-0.16450405932187354,0.08589784074045295,0.06655941852308202
-0.12454845746539851,0.5600620511783553,0.0758071159093648
0.23714219891420746,0.6064042223148557,-0.32266477408079974
-0.08737060975849352,0.46553438824979293,0.04456383911755008
0.3939454329781066,0.727875616152244,0.1831899160808665
-0.056065343044867974,0.04085044690875087,0.33259522981875284
-0.3353254225177652,0.759098975900889,0.07460918790198266
-0.12071165925857867,0.46012568520240893,0.007185696924561153
-0.22741504284185582,0.5470722786205644,-0.2666186608398766
-0.14359838753783255,0.5561440563792097,-0.016195554360500606
0.38220718456852076,0.618710716418616,-0.023853419426731505
0.1362269950719208,0.3496520185375245,0.04457390583079567
-0.08086769072321141,0.36244234801070635,0.0781552642114711
0.24823849637613207,0.011713760474675875,-0.26165254647976716
-0.3115609837545896,0.022648077472156043,0.15677162725892388
0.37199573779763623,0.7995781876469524,0.07793222327088586
-0.3172781010352168,0.7912847037498043,0.03426254506307294
-0.21927683020620733,0.8793286751398107,-0.07126720018866828
0.017511973667559088,0.4650724010351513,-0.12612761672368675
0.18299693567154351,0.1867220507059354,0.2357969206883035
0.12381143837269522,0.9547211136286273,-0.12385243280006118
-0.3058611083041113,0.0405184415569842,0.1180949073430711
-0.21869328782295747,0.14533176260100789,0.1639168629099321
0.35000486850749124,0.014166836219616577,-0.008366957445307945
0.026645749977428634,0.46017934335690597,0.16210763205509596
-0.27384561422694875,0.2003320887046548,0.19668498440995602
-0.12314284293472752,0.45520332496920934,0.0046044289564255
0.42940871375114464,0.716197717273098,0.13661023252342694
0.45106119904116343,0.7199662846258432,-0.02866880234647748
-0.2762294411182207,0.5432261195445983,-0.3131678132202578
-0.3075602296371153,0.5327376528309565,0.1601486251655009
-0.1531525006432385,0.8297320044534998,0.26227379850584015
0.20172311312482558,0.6222161666075163,-0.40554726742175656
0.1929425767636635,0.19247354894593718,0.04485859773943593
-0.062336383417462664,0.5809914001342739,0.23691012001534284
-0.3582087340227771,0.7466029245408066,-0.062441855258136315
0.16898102591737216,0.06124154012736922,-0.25129770489004616
0.0583323429441711,0.7758314875721761,0.35518402007028294
-0.06514606563405753,0.23943116239928783,0.15497406948001186
0.04080985421999274,0.770492515189361,0.3488153042713583
-0.1462311386144041,0.08263386881324233,0.0011127333517342158
0.07025524897754509,0.3684993200103005,0.12273459932845077
-0.3691830616269593,0.6817529305699674,-0.19690728163735813
-0.30446254060869293,0.7578147900894323,-0.17983876643345006
-0.33840711093142145,0.02391393359997719,-0.047577163826721794
-0.0008765537868303114,0.1664363466997184,-0.15398617406658302
-0.010053758874280314,0.20730283993262535,0.18535094840158084
-0.18147420323466035,0.7684164422147317,0.32000188033119625
-0.08147337608647645,0.5039965228834077,-0.04543131657873349
0.011596253360965057,0.5878357691720946,0.16076548532752943
0.42122810276529543,0.7343133633137623,-0.11792096130483429
-0.2942907031048545,0.5501168529140891,-0.33543137781677657
0.047448577541185415,0.9811388331914603,-0.06860995570310593
-0.1005737254655198,0.796449743322911,0.3390062730511471
-0.04473665665863523,0.7931293627337501,0.3384458090446113
0.06316387406712706,0.8855352151529928,-0.2371837620218133
0.17533036943167357,0.059670213653796024,-0.16383653855448718
-0.044303453997164566,0.767333613698224,0.3667045616698807
-0.10775339074012205,0.5665344013080864,-0.30295214839225576
-0.25468605114217757,0.7417087597656845,0.30083325833627805
-0.15761149276821096,0.5547026039345961,-0.08883434623838013
-0.21055377259954997,0.05423597108684883,-0.16831718790150021
-0.17503971971191962,0.655793815168442,-0.42718565757776594
0.2921518715941449,0.6185718336992179,0.07789177687763571
-0.3171350566202661,0.20752040282016615,0.19821701102930456
-0.21995444793178703,0.5452325567439325,-0.001964797218494768
0.474894660600945,0.6673985047326886,-0.03400415442701699
-0.25333574963866234,0.6670382587706152,0.3946122489101324
0.18517335486009598,0.1186794471421684,0.09514514133028107
-0.1881282412871052,0.8284538493905474,0.2404945282995937
-0.47385532831473615,0.580904433517157,0.044594107755780536
-0.38080357967876677,0.5683429763391308,0.30247937143228276
0.2724649783488091,0.6115047081240688,-0.27261642145271126
-0.23012301674543564,0.05460440365006474,0.20312714394836456
-0.08507831257073781,0.8497533282488218,-0.2574176578944492
0.02420966046233826,0.5839373427317972,-0.2643952694593021
-0.03402673263918226,0.5937381834814948,0.3327794836527296
0.0708693970865714,0.5954452985133034,0.11749018304064407
-0.20472041808270264,0.06868675897729354,0.08097926888423465
0.34360932615563794,0.809543229443427,-0.1424159538059117
0.20247103272546285,0.6312239673415475,0.29213344822821163
-0.44960884472411455,0.549292819218725,-0.10414600364074908
0.30586270636789475,0.8414347436822806,-0.15743134144483115
-0.06887290977088723,0.5030555939637525,-0.0577672142376674
0.04152578020727675,0.5848530575680893,-0.3162343547221537
-0.011377662421875179,0.9054227068670975,0.21212047582582125
0.08238753087467277,0.22476244772423304,-0.13207612979366956
0.09850264139680849,0.5944655615472118,-0.06250722179153889
-0.3117252110404941,0.0524219051746537,0.0387143360546628
0.05544885706158212,0.7269920084315671,0.3849423595964857
-0.2385906797262987,0.5423204632162755,0.029049391097088317
0.11603405427903357,0.060558889432548536,0.19662910420693605
-0.23429892576216288,0.7327248511233656,-0.30523358488519886
0.3542211038351707,0.8062992270348177,-0.11559576027324761
0.04740783407894746,0.031444819846229384,0.39297242513173497
-0.00534099756829888,0.9725209547239776,-0.09373723899460432
-0.11655644988566002,0.9234473293848591,0.13551077182663834
-0.0894111110757738,0.7644125223663613,-0.3645990790336803
-0.004574353380360271,0.06839650813375235,-0.22376971693589828
0.11909015271927664,0.08224736655981234,0.1658235946483039
0.3510196330153777,0.7592820977346294,0.19695887509215607
0.1883670625056816,0.02240271735872749,-0.2852471151347371
-0.05139973017572386,0.9364575255019012,0.1626408851593348
-0.1676514886627685,0.6166047466883712,0.45440319018670383
-0.14753730765589743,0.8294936233204264,0.26557710518799527
0.057572554871363035,0.28917261805437433,-0.1133230183812112
-0.054345771832086026,0.9557033274722366,-0.11238527242784951
-0.02175898749074944,0.15139655027998428,0.37515179215638617
0.1054752924754393,0.8705839756641962,-0.24428727723951316
-0.2561866950387712,0.06321450149950324,0.11698086347124148
-0.07568533671987918,0.7309948190646386,-0.4028634938226665
0.2240300396885395,0.07556438571605598,-0.12649229468542772
0.2513344316944477,0.21212758651375874,0.2618483509890594
-0.25240767844679396,0.5690991221749009,0.39419503687500934
0.26548421654388854,0.6892337059492527,0.32648031450949616
-0.0243888099367493,0.012947876463373425,-0.3756647404431463
-0.08816457217647054,0.46931465288273555,-0.021477259686939122
-0.17508506876504,0.562586413751451,0.2992354583001376
0.1399986064961749,0.2643160797917354,-0.0698148532511306
-0.12262800712356157,0.6131099785992904,0.4564756602787337
-0.3023026835138918,0.6783152986099921,0.33917923352892315
0.12143329365926397,0.4888503346662105,-0.04723562393561836
0.40285376374904847,0.7564017196565178,-0.1051075488600487
0.16999637808161944,0.0613388992606384,-0.18279064726764546
-0.16546697559186585,0.052113287667616665,-0.20709753996174843
0.32413389895777267,0.725729852272323,-0.29952443017036345
-0.20383832552698622,0.06990521846669678,0.0019069517135510416
-0.052031370188804826,0.5734806221955305,0.11457867044513728
-0.29534857489962346,0.8067859761357067,-0.10335504123592766
-0.21142200936885058,0.008494455600083134,0.27692200629289887
-0.23057160774224025,0.8802709031750046,-0.03201313945495263
-0.32523580564841237,0.5424277487687339,0.3123178660642454
0.3060217376877023,0.7690319262705201,0.2458733507251612
-0.17075238072895355,0.5693267585342014,0.35988849141952883
-0.18545239808272754,0.12511633778347228,0.1750644647982601
-0.3971245425310818,0.528546512273355,-0.15732079080405884
-0.30358688577291726,0.0522318697849178,0.07455469415472923
-0.24422315928665086,0.8323826287086372,-0.1448861994591897
-0.19144155905605664,0.6252029717411661,-0.4349145443378717
0.3289354052643032,0.6385159882325998,0.22059834027313338
-0.0007776643644209214,0.9154437024842452,-0.19693605190291807
0.4093212937671989,0.7644571069455462,0.09540660577083769
0.13288307837719515,0.060412042341606104,0.3050059258362582
-0.0403300808595887,0.08092640106859517,-0.37876753695671983
-0.08412748947611058,0.4728850055276243,0.06069222206016375
0.3172680459414765,0.024743368850604373,-0.0022307592195019085
0.14613445709010153,0.3374642644795793,0.021738463408726445
0.0644437480535445,0.07116996374614755,-0.27028622627898147
0.09707358952486783,0.5935984844907256,-0.17515081168265378
-0.2887302424745145,0.6740494586856525,0.3589989616007926
0.3233819642222298,0.6367800149064551,0.21414438472183114
0.10663157293040332,0.13438733750642212,0.18123127872101852
0.14824998866172118,0.9177516993871353,0.15874255244409124
0.1486257146298518,0.6271436379024022,0.34098099636008483
0.24557375146133295,0.10994931512507135,0.3149682245417014
-0.2697293466878026,0.7614046959746283,0.24647844493508667
-0.05131186236275444,0.5740683874273487,-0.3340183098654959
0.17322887478117519,0.7472311164290482,-0.366602515019327
-0.3212730875457068,0.531445506704543,-0.1996339523434304
-0.19016437729389796,0.5572978629002007,-0.3413384979862098
-0.17133271628553357,0.7047985596556897,-0.3865993678830315
-0.06560404611929176,0.5692250538006209,-0.09122455289313165
-0.2310467263891695,0.712061679728504,0.3656509464720055
-0.36186045267509004,0.65870601152158,0.28146655641125196
0.4692308142500737,0.6553633559461486,0.006206554335652176
-0.290261794063244,0.018365340517690995,-0.14698129231492452
-0.21481404066227433,0.0044683350259206835,0.30215184904399367
-0.07294589080913973,0.06433227659189475,-0.16841621482820962
0.16357193030291448,0.8909425374575504,-0.19695653759485302
-0.05920788990312799,0.3761166152201914,0.095796873578552
-0.05402844652486255,0.23147437976648058,0.16564442530391957
-0.3939275081625099,0.6607731586459402,-0.17423537758013768
0.34412786046046634,0.018778659476410595,0.0093921009964201
0.10498081665482044,0.9846151811427487,-0.032198312496795264
-0.07478175179036928,0.08938579056034107,-0.2123124158002695
0.3226101615472168,0.6226244038436192,0.09855326689975709
-0.05929745435644318,0.5629717970442162,0.07659801499706029
0.468915381057654,0.657534171570697,0.0243587207353426
-0.3325640359635543,0.5303559086131181,-0.07051551327380598
-0.4165824022121425,0.6646698213589862,0.15100464324940946
-0.23025428099003642,0.5448110802078093,-0.18368557236451147
0.20265138454435846,0.13261906027424478,0.0392024381259098
0.17942098712865162,0.6263205647709543,0.28630059868464525
-0.04083436724992448,0.1821676343557267,0.22974269757761492
-0.02336351624874875,0.07179102140672516,0.2839019246559642
-0.3087440517115823,0.5331385824256168,-0.2554176589360441
0.13230996602659342,0.4721493588164604,-0.006129287184959378
0.4604993059886152,0.6980630434503151,0.044708367438884705
-0.3163463347008942,0.7473700489506833,-0.1741537882123372
0.04883350334943937,0.11082412325697871,-0.15345752954473277
0.02732836052549697,0.3940294964747063,-0.09239215580914856
-0.02264379776328579,0.737601513654315,-0.40304272180663836
-0.2554225536063243,0.5445484832202957,0.24550065293842252
0.15293745581007007,0.6706196401133543,-0.4309513064593764
-0.028172400801525443,0.766612535590285,0.364264218702235
-0.13271623583188014,0.5605535271942508,0.12027383755630297
0.13193435091524847,0.9798042005435295,0.05007035254438642
0.22564935117980217,0.09641440817706787,-0.15632782454430078
-0.06110708058562297,0.5731184199479017,-0.28420009107592176
0.010416381677051181,0.6304960742981534,-0.46110542003129956
0.0396761077134196,0.5865281200669326,-0.1515055217549379
0.19098562316160236,0.06133099231657167,0.003436325338064849
0.3821130941795569,0.6544108359316432,-0.270800712228851
0.2756666017273105,0.621077350114991,0.12786140148870292
-0.2526558797292154,0.046651058514687406,0.18998789911076855
-0.18424488244599233,0.5551109837054738,-0.28913974076577864
0.009472323606547824,0.5823316388820485,-0.23710359349829618
-0.3934528850518533,0.5561732705264765,-0.24999501080418568
-0.024864295401152366,0.9795162576536423,-0.05542219148547676
0.32567606195566334,0.8322784360372613,-0.12261078969937599
0.25083967269491825,0.6603964666073874,0.32752030944633126
0.2926904243246743,0.010040841132940074,0.21333410382074738
-0.4338880167885122,0.6453685214233612,0.1405412111879262
0.28503432467236556,0.006753233566110035,0.2531423561467767
-0.0074896641079883405,0.10379029392317507,0.1890472417900561
0.0643502046120609,0.5866839640185086,-0.3648700999001366
-0.355082321009027,0.02646672727376719,0.002765283213422365
0.24484570127469912,0.09420812310784103,0.23408888901511762
0.029284965846953906,0.12145738742214218,-0.15920705723375375
0.1832902835669578,0.058159619802996124,0.27840540112135875
0.21626097108934397,0.9085780897854023,0.13728857934036703
-0.08085704159071141,0.40542818460456936,0.051665437987612195
0.13090032147786176,0.34899079737648414,-0.024595978417461587
0.1362671449805135,0.6000480939706229,-0.039463490721234375
-0.08295781229115626,0.6118476098548216,0.44911610194693236
0.24171797589630586,0.7165549451820921,-0.37082484174767355
0.37644540778096897,0.7245600884832895,0.21344703368692358
-0.12022026925908486,0.05554176499776539,0.2624945691988618
0.11487476853653594,0.5941438828127166,-0.2520054192937692
0.10934813351509584,0.8635403854310643,0.23490934606381625
0.31828764584901104,0.019887690621200087,-0.09555535311751195
-0.158904335465091,0.05920840330434071,-0.13459152742724492
0.1787034385762532,0.9709883570112808,-0.00438900024407432
0.22490588374181358,0.7504598570302441,0.302063584007524
-0.13600438651501687,0.8314107701306078,0.2683414544414591
-0.26833549942947865,0.7124189505191623,0.3375509978914387
-0.010572986961824127,0.9427690136550922,-0.1532267743121959
-0.1302611173394584,0.7125674215194322,-0.4007562506402545
-0.03030188930429363,0.919506553454077,0.2001258754201368
0.21449669450338563,0.08539856535280113,-0.13352119721569788
-0.33843801088376063,0.7611847266785279,0.05055762529314467
0.06164230695771422,0.27629575036816717,-0.23938553580151414
-0.014106843835818159,0.48629152531009934,-0.09704350469466304
0.23078748043182312,0.7167707255784336,-0.37907369692513987
-0.38838043928570154,0.6176472210171702,0.29123402245586355
0.16519183428961207,0.9456932463065162,-0.12236863111327032
-0.031754078080140816,0.45558120729547763,0.14589237841563796
0.37381676853848333,0.6183180030871022,-0.1293633443194943
-0.0729164629248668,0.5714206393995792,-0.2985284660063382
-0.2989563749246361,0.5796325196352524,0.38339460067627223
0.28677123329831655,0.8238900140628654,-0.20411365025386802
-0.07424345962085678,0.06394412030451906,-0.1713917119439111
0.1354764299339136,0.8904076248325787,-0.20885799887757345
-0.3509421927665908,0.527126931513595,0.12483431979846894
-0.1745747723970518,0.11218065707839846,-0.08483024906455011
-0.18507240946126163,0.10089254388185787,0.15529299711525357
0.3730090778640292,0.005859,0.044164844354799455
-0.1335245752312195,0.019329297796438334,0.3232361648867359
-0.10844266674727782,0.8621683042731667,0.24143873237350838
-0.04575030159798554,0.30325417614021855,0.1388079253910694
-0.29940372192595716,0.7310064728545099,-0.24000332856841647
0.18772731023807454,0.11410153573484873,0.22078547748084598
0.04856149020456957,0.8051089226282965,-0.32439116914886257
-0.08682591953377844,0.1721824335837194,0.15530891786767428
-0.37012218233053507,0.5353485417135192,0.26264464402318627
-0.1063611335205833,0.30974709513255866,0.03774520564830533
-0.07651465743221496,0.3982504180826774,0.07161847926706288
-0.07954368803339876,0.4522082564272637,-0.03442118047115768
-0.31082994189446844,0.5327377123167709,0.04667020933810505
0.11231430772950847,0.0710874497862105,-0.20140582604855028
0.14783845479577368,0.23901300748649873,-0.07568510256980052
-0.2779885632370416,0.7515194006252566,-0.23187162187896448
0.19529980029801983,0.11786209461661802,-0.016907713532668456
-0.06191533928244353,0.2944710472070112,-0.08784469706359274
0.45622712854492514,0.671005049768366,-0.1275191443911478
0.0733587192717522,0.4765575872344627,0.13412732914786618
-0.17225405166143792,0.5525174311260791,-0.08241134161365292
0.06487092641534252,0.28340067348404363,-0.24557119192093446
0.018908518240092348,0.9441431680137399,0.15870184295214668
-0.3074734746718878,0.5365555555549707,0.2473771356524831
-0.43304270304802656,0.6645352308088043,0.07935099166058265
0.05467710164738249,0.22235406368035615,0.29690457172246315
0.2554069423701796,0.8553810096430334,0.1581240854713583
0.24015582827335114,0.6070208538242247,-0.3053937556181911
0.19045135076516695,0.831923530997825,-0.25788157101277875
-0.01128645091456143,0.5982237677221095,0.3396250580564873
0.4611277068356766,0.7041750533432513,0.01901141938386383
-0.3890074068638104,0.5271065934176599,0.09560004030703162
-0.3225000154561595,0.5372172772443776,0.2857349988529206
-0.4329214966244712,0.6158917398664445,0.19747103120369042
-0.14573019891672662,0.5567703997714203,0.05629350843458891
0.1374229504882563,0.6194364506974191,0.2869702390960513
-0.03657832400261824,0.7052598624740162,-0.43377342938658303
-0.017627911699024876,0.15623244683235685,-0.28309512678018994
-0.0147745505265617,0.1497573925007393,0.391582138950958
0.056159210713649765,0.9626941005154793,0.12132405933666605
