x,y,z
-0.04142161236344785,0.03639403341642656,0.1610433245677813
0.09013493199272067,0.31684270827212335,-0.09946946895407882
-0.1932310541980771,0.16507357912881937,-0.0187843816240446
0.17386603487520538,0.5187661695136646,0.016619030372645158
-0.06996236602085917,0.5502325711240176,0.011286921543268156
0.15684862073932734,0.2089490306312803,0.0016392674545929742
0.15509879351162598,0.3652255844624734,0.004557811875994317
-0.09368064609686981,0.010414994841085679,0.13763104599000628
-0.03213935183493325,0.10607089677684023,-0.08058939226960184
0.02335760639538035,0.005499792501661554,-0.2064262051894575
-0.03607809269933033,0.1492931256396668,-0.19132085492844544
-0.09387883855174983,0.12054250670111702,-0.16555712736021194
0.04581936020667679,0.34499210667401653,0.1250116621992156
-0.09062508587918783,0.07051776527140899,0.14952757913589698
0.08995859000195126,0.3990501408292048,-0.15462170052391264
-0.0030431828232791304,0.4342471254266403,-0.13734779785273765
0.1818101793467239,0.40729161367689926,0.0006425424798940163
0.07921507925869758,0.44358788336590066,-0.09052823321348175
0.194170875675185,0.4314297781125105,-0.06689691246550918
0.15061468234238207,0.26938366277776593,-0.03523328235613475
-0.07953209713231728,0.08955858160007346,-0.07274563796422087
0.017951925149532644,0.05107318406105101,0.18207004459275017
0.11890342452685798,0.2002108368483316,-0.060350875376922894
-0.1867051473532667,0.14016373182647404,-0.0400501976763388
0.06132130739237508,0.22398528233699086,0.12540752749208528
-0.11379746955090715,0.2457279617322803,-0.1388099418742579
-0.11403838473045239,0.42648954973608433,0.03570148295923004
-0.09428982851894689,0.490388561089948,-0.008182467651608969
-0.1835993497934569,0.18152727939513932,-0.06333057884028065
-0.1824304289975752,0.15091719642645293,0.04830316344409444
0.08088223770750455,0.43329978949166786,-0.09776400509940823
0.06420359271902934,0.41296946548350616,-0.158381287815335
-0.010808623815715294,0.8721838326314847,-0.06309109617439308
0.03610461244189363,0.4181996182063282,0.16668468360538402
-0.05498959779513522,0.8743372963738232,0.1591188196388316
0.14788145688007817,0.44754599281478535,0.03944970718071959
-0.03140531557861459,0.486228490562466,-0.10479333151119098
-0.06872650584573695,0.06311304821772513,0.021271610560881934
-0.0032295653159977473,0.6883754614772067,0.0610023322290665
-0.04326646215631804,0.6997811834402868,0.0008504291483575597
0.17044150836291042,0.421294002517718,0.0925501004310679
0.054174430565998674,0.7674908104616356,0.0659024729563922
-0.17882037805152884,0.08821180554852161,0.039337329383190116
-0.010648120949644967,0.08572934349519598,0.02935162161094259
-0.11763240930616822,0.08265123538695733,-0.12247264659922748
-0.12720668643661565,0.06533920688111433,-0.04993672807248692
-0.05722230154222789,0.02210734425779926,-0.08148366547644423
-0.1069105966960757,0.06601872354134208,0.042620693324584465
0.15680731544710835,0.4327706003808476,-0.03765850738764019
0.13670319123980051,0.47816399364971746,-0.006675189250820463
-0.09139974958571061,0.230325839683064,-0.16696875866483393
0.2000572197402051,0.3132374542987087,-0.07003909155845026
0.18220254805450697,0.6619725739099069,-0.0048792517518965765
-0.0945742017374062,0.050028562220732986,0.14215207311726985
0.027449303587004512,0.05153210020976965,-0.14404881493358754
-0.15425074185856516,0.35507353541747316,-0.01941303111514671
0.15462537682302016,0.6048096246250843,-0.05806354189548685
-0.029205076395981983,0.8038781321199645,0.05224965300303412
-0.1949886700083566,0.23933551211499585,-0.0034892283471221336
0.1763407767685219,0.3931644531951625,0.10065606227430883
0.05307810731690798,0.1288850877511601,-0.1538876714253463
-0.1536069166052198,0.21141220393562887,-0.1098249277644253
0.13457121648563342,0.42577017307088316,-0.10794108050420056
-0.06593242703364384,0.4801773738548265,0.06681480787158846
-0.043643413363626544,0.01104327389434622,-0.16535984363527984
0.050745590699163755,0.028848884445062443,-0.2290155233898407
0.1575281343518055,0.240790184715265,0.01738294783354696
-0.1727676655277273,0.26142020307472935,-0.05715485547196016
0.12901741177621012,0.21057624842279726,0.05705315250768729
0.0262382304752025,0.5414811314894383,-0.10382707867413302
-0.07400493222224777,0.8386822539859989,0.16284920413666587
-0.04981443256064268,0.2960637080978732,0.13298493435693748
-0.05384333529509786,0.03421171851425387,-0.15910655879811283
0.15174023674426398,0.404239945581443,0.09129873666002111
0.06675333337323512,0.10423864852919879,0.0018289833309606545
0.0940650055316815,0.4377810679683716,-0.09559683922959591
0.0555092571562921,0.24508521151881413,-0.17386318533140294
0.028566646565529357,0.7102852468491463,0.07448040374627257
0.041583487687513285,0.5503044890329376,0.09200693659353149
-0.0897646574076352,0.9445294644638331,0.18479112112053095
0.037121107848585695,0.7745590881587984,-0.029397729997448316
-0.17588992338451034,0.3074380985319833,0.00482919135366075
-0.043588923215219524,0.3795543635066279,-0.1036047527345759
0.014713306000996183,0.9342582262847667,-0.0959676931725928
0.13999340820072428,0.020863063966162523,0.14729295303407794
0.1597033245873512,0.28086265156070933,-0.01709211481219306
-0.11396343664481318,0.05454209625779609,-0.1023927403033972
-0.02096764371962253,0.09379021555041117,-0.09473468329356648
0.17653066713281748,0.4461886569104225,0.07802213045795635
0.18204204462370377,0.4390501358351372,0.07223601228194809
0.036225694445578674,0.13246101350573153,0.1726813105460408
-0.018023264570202372,0.9424852186951401,0.11138551863827512
-0.024998281489934097,0.27659592489507057,0.17190775946162293
0.06996174591312973,0.201750735966072,0.14256644844859578
0.18564257957645994,0.4506437113544555,0.034317718077022955
0.1119723830033588,0.0422529225981127,-0.21047536042479653
0.07359998831989456,0.3975986017769467,0.16187353742891092
-0.039069231805666196,0.9920251592295213,-0.19456896326942608
-0.12267905513227131,0.417031849462196,-0.03265021889916725
-0.04758314475931141,0.6097193483621213,-0.014987991357174137
-0.18698264450815108,0.17968402755766244,-0.05460365320205833
-0.03287458497355205,0.5690128164689756,-0.05757898193296297
0.08960055365736083,0.6050992597691813,0.08309976232100481
-0.025500672821949656,0.6538197363610777,0.05745023150232183
-0.13789666527044844,0.029580878606927798,-0.017772845341697152
0.09028433940629747,0.004191548160112367,-0.16537473297806818
-0.009437992014324572,0.004377587921211321,0.1750573106640109
-0.196513553888524,0.04513186128957086,0.0005308542006530075
-0.19634338908272422,0.04566253468479036,-0.004713412563780942
0.15661810153700964,0.3244468364980551,0.015072835321264263
-0.027245761162517555,0.5100668333512093,-0.10458549504063873
-0.0847255916887289,0.9548220352161889,-0.2027074753071751
0.10077599567876239,0.033480685448386775,0.238732906416207
-0.06732331465729392,0.9467810352546365,0.1914227159649035
-0.07381381602389042,0.530247476762989,-0.026719893981350617
-0.1898063859584156,0.06518826397536215,0.03563435933636127
0.1437967930477,0.19520381134716475,0.016588670083213165
0.05959611072276716,0.3553999836407628,0.1382159889728271
-0.027009878057083398,0.6919761028703434,-0.04872185281727724
0.03265025186146901,0.1015923847163637,0.13659446971845315
-0.012098365535266444,0.06214105687349723,-0.14719888386436458
-0.09228512223410758,0.15693285553626976,0.173936128511365
0.038791535379106186,0.7703255371758315,0.08008439175021925
-0.04625622140025533,0.8002566569493049,0.10709743448441524
0.1266112343767749,0.3217815168361902,0.06700943457596617
0.2018065144025295,0.30774523130523807,0.06811363588017749
0.07855747320638068,0.4097686660601082,-0.1543039554482696
0.0052114601210260895,0.08600794027892272,0.022500300937572347
0.04558930427153289,0.004890922912266052,0.20488637333957704
-0.05395576667771477,0.5781532084938311,-0.014487146544736818
0.03466574532794045,0.018148419255535092,-0.11948772350378478
0.027530557117161382,0.023322987948168256,0.11878183344861605
-0.014383136545542779,0.1001953604454447,0.06765722216555994
-0.05251798698555655,0.27243422286138286,-0.16963408573546657
0.07543806430690707,0.14676476964027924,-0.05352021690322496
-0.055087005243500686,0.025088249667067495,-0.08261609812281359
0.20787420401563983,0.4699306703654004,0.0961992885691461
-0.06899134161802324,0.05815174836845824,0.1567032784339166
-0.012257508721482582,0.7962000330060595,0.10511687447219831
-0.0334296436052613,0.004225956001473334,-0.12236140413013556
-0.026996137310744794,0.8519793245768854,-0.062160903961591046
0.12092516103414018,0.5295549946450293,0.02924261114931982
0.09420344459663813,0.12510341287685264,-0.0017880624250173564
-0.05881588528692096,0.9524298713211069,-0.19652729105563357
0.12339791957320488,0.038551867526134376,-0.17677163123383244
-0.06079912297771175,0.9806594653051992,0.1971288012028685
0.1403613759486466,0.4578216877950685,-0.03493079711362026
-0.14412573163415643,0.22562976576731794,0.09791440920833834
0.1836170878931505,0.36531215139550177,-0.03760746469384911
0.17502778145759793,0.30079101964660854,-0.03195433027520039
-0.08721178188196058,0.8745357737653643,0.14904751822313145
-0.17487411887024343,0.1850511970231659,0.07336555623631091
-0.03784376752803206,0.6641555947625336,-0.03919423312839771
-0.03256979050238473,0.7701797618100847,0.04655310170853097
-0.14313637584959887,0.25788550555665596,0.08807771330545806
0.15172118889261763,0.23853286510186147,-0.02908663712170364
-0.038098075876526874,0.04056551066818555,0.16068493421167618
-0.17234460096080975,0.13818100474722178,0.06602202657339831
0.15664738575422366,0.4071179683790078,0.07894829973755221
0.1352961676938088,0.17577783627632804,-0.011482136164440632
0.08016089035035247,0.5947007738003992,-0.08527614136544495
0.02521374811632831,0.8216519183390069,-0.08835495166064139
0.048561020697748196,0.0030699232451645163,-0.19414796600163556
0.0008496551425648527,0.5412978834727676,-0.10037532415146912
0.06372075904918852,0.15586432853408788,-0.16081726759857332
0.14141338983953522,0.6247131663207647,0.059073130176419034
-0.03549196215655646,0.8058196350939736,-0.0689420176639845
0.1406638056439779,0.201449794663231,-0.027898458356611946
-0.014626051240203981,0.7231842064505702,0.05971813663015345
0.02260730560647265,0.10586564268148399,-0.15994245504468732
-0.16017277697957727,0.29616863966289797,-0.058356772262906656
-0.10111435210610074,0.03680418352159595,-0.1296704928261811
0.1059008442542888,0.02146723157885535,0.24192739100134408
0.0071876926653052335,0.365823895812775,-0.1353804057859104
-0.12204078143393339,0.2559232687730942,-0.10464912608104088
0.022901277377116253,0.12514064750463774,-0.09966574938503951
-0.06516721144157059,0.8371299814929161,0.09674646822011848
-0.1762403721534816,0.1498787335168677,-0.08145332017695493
-0.04304876123775138,0.8292382192283267,0.06938093003440965
0.20207064116254894,0.4820590724885401,0.05241014297256674
-0.1349486509917585,0.2827728900818234,-0.08746347048888872
-0.08231569319048543,0.494984070087892,-0.03919587324310452
-0.07968420478110798,0.8552280513794285,0.12079248539938392
-0.09994622963903,0.2742914406757825,0.1080426349269307
0.039265910233693344,0.007275824913032369,0.17446381812293416
0.11703595494819463,0.6022995277911223,0.06466343170185467
0.1594089950897563,0.3959258767857682,0.07962538398456448
-0.10900328895604121,0.3405709139271308,0.08216332862918269
0.04115430249975034,0.7151140552605711,0.0749339710418167
0.010944988398091007,0.08284048334401067,-0.14516852730730498
-0.10002021894128098,0.04421761015292308,-0.023921390420682247
-0.065726224617666,0.29134768675457207,0.11815750383034997
-0.04807895160647259,0.4527428660675812,0.08477825011585642
-0.05751672902833159,0.997833887451802,0.1973193918416016
0.004670979759285843,0.09815402149315235,-0.04725863587559355
0.016131752340787075,0.4768587512291649,0.1421526230223865
0.06474448918224443,0.1680996937966094,0.13928676322251274
-0.17510983112509984,0.11442563261801392,0.0349428964369619
0.13723689709755235,0.5903218482342342,0.0373473939782902
0.03921780128344408,0.14245144377691155,-0.1065578004971143
-0.10050899261309416,0.0850261176781266,-0.14542038548683767
-0.007667936883093605,0.21723736742921043,0.1965416159076247
-0.02330421515635249,0.1609784952516417,0.1951716455040627
-0.1394394999999074,0.29578453024904217,-0.08116057774494656
0.13842718424756129,0.5881060885509558,-0.03587119862742462
0.025125545169301017,0.5124832627967022,-0.12358405507684418
-0.01651277297138539,0.7076993723665177,-0.06344744940380363
0.18870473748183925,0.44113195436339464,0.04296518522570539
0.11689365735980678,0.17211982011042606,0.03489302611783673
0.05073491398908491,0.2641505637503941,-0.1352283130043741
0.02229858019529874,0.8588949176511274,0.04581347295282522
0.07801644392303295,0.11415681131917041,-0.007353182730267353
-0.06928498189065406,0.5419331694189689,0.03059625012446395
-0.19121337657340529,0.26400788232341266,0.0034549380989998164
0.07788730339319631,0.5526134572216247,0.06704852971575023
0.13676219568179113,0.377397507918276,-0.03697135706711788
0.012555024679377469,0.11012703461816843,-0.10328170608795802
-0.029042546972482625,0.23406694239580522,0.1915179393203047
-0.007095571399551647,0.5402080968451124,0.10281593396405975
0.12115673224664782,0.3681514755707234,-0.05789760579443787
-0.10861505583727624,0.0028687172266475373,-0.10760207548208171
0.20364340094984576,0.3546639862327507,-0.0491988153320647
0.09014717442492604,0.00448509380368526,-0.16018055285422642
0.12351521319437336,0.43579943283640526,0.09011039894007598
0.002190159867991511,0.11034496011710523,-0.1718573674802378
0.07185951047247979,0.0113576627878113,0.15397134273954496
0.20008519140137201,0.3130386817005625,-0.06987054279124552
0.10166409804297027,0.48998462578999863,-0.05738775400636714
0.1544143840083629,0.2531156345917311,0.02561213612520108
0.11210378814584976,0.7384022748788202,-0.051633803210569526
-0.03301512184029018,0.3739450880613951,0.10557650214375999
0.16485221915711115,0.42977230542824607,-0.08479677189668952
-0.19307419866075018,0.0783251804297915,0.03444161000926453
0.019585001155229084,0.005012600052046142,-0.15013892573502394
-0.049540642913551536,0.06882460728584736,-0.032534807906553935
0.06265755068781839,0.24756824598278915,0.16544395220696193
0.15879690085102574,0.49025552824957364,0.10885740099624118
-0.14297792686468858,0.17185198133851612,-0.1367107798325738
0.12490384659249736,0.7377221311253075,0.033425337349563905
0.08965742490521778,0.14296698595965251,0.028831312590366122
0.044004736763714095,0.5819270638414539,0.07767671203158058
-0.13280406112689486,0.04048444696929628,-0.02729974148229456
-0.014844591745138214,0.757553907654209,0.07926768982552307
-0.08950177102880308,0.46091379438670765,-0.045743603307591765
0.043928027707219985,0.873247197276215,0.09573091762669528
0.1320972759229041,0.16894072012139194,0.008093252654992923
-0.04567263869572592,0.5717606606756785,0.043280900311488804
0.13162161230443387,0.04270395944442775,-0.20429851447966454
0.016245769863520013,0.8691403000563059,-0.055137437653818275
0.16901037324889123,0.3529047183019678,0.07498307512134395
-0.18167177391025943,0.19619935426057122,0.05663569067479687
0.1551155751209808,0.4705943238743755,-0.051990019570290535
0.08089492969243209,0.3739358470694085,0.10169649862817465
0.10985366030523094,0.35405401535841013,-0.0752932539709771
0.10492072024968079,0.6905343354459632,0.05585942928649439
0.007007653833262947,0.8026706931845609,0.08172304657635449
0.16473163922891784,0.5122228699665399,0.035498569152804485
0.09056560400304903,0.15710047233939153,-0.04693547737088443
0.15038752496581265,0.5843877437790348,0.01308530800490332
0.21057021908145943,0.45258980761023193,0.0681203947368497
0.12395660438522606,0.34262637763404036,0.06554405220490611
-0.14543146462101392,0.13502585289831184,-0.12885132549358908
0.009638514343707081,0.6573265681215169,-0.08068452851308484
0.06445517190383623,0.16631873737594546,0.14058295500320916
-0.03942125186169298,0.8697666373327353,-0.13017689602982463
-0.023003348601162307,0.10745700511472323,-0.08705501810310476
-0.058935451614740564,0.9121657459349788,-0.16771693352588274
0.010590123124802035,0.7973178140898175,0.08235975802968498
-0.09353762327791777,0.43989443138973244,0.05266762684021935
0.015995308297072613,0.004313888158619986,-0.17149908765493674
-0.08538020223467824,0.04464290138595507,-0.019238327511108273
0.039994233530978376,0.02212901380001129,0.22011861213465986
-0.0051018195798514816,0.9383340355278759,-0.14186085714344024
0.17148491221183154,0.2811125345101312,-0.02839506073758033
0.12407923822330467,0.47130671696604914,0.08333458482304543
0.11193693155752522,0.44970808706353593,-0.053771028018552006
0.0007553338125857768,0.9542002182447757,0.1297845818026015
-0.06628679683035268,0.048045297865628465,0.08832607196429114
-0.06540320729714247,0.9406181561127229,-0.1422900060961756
0.031626960366846785,0.9305299450476537,-0.09699866312335126
0.1456630245946943,0.4630777179053841,0.12308843443594629
-0.043258914884893515,0.2218327355369531,-0.18964201125876104
0.03681110150006624,0.42195643914991404,0.16588333331520216
-0.1948860134815815,0.22383993666363095,0.010859843782764108
0.05759211584066467,0.4925627673283056,0.11800186939146783
-0.0711207456135023,0.408002034759649,0.08272068017524266
-0.06373448890208185,0.9353835775935986,-0.13520654209302008
0.06932099945292439,0.17286107512346083,-0.15407925291226116
-0.01710846292978517,0.6647275088682598,-0.060277729460769626
-0.030358888945252314,0.8388696320713508,-0.1282359599350664
-0.056910152122447294,0.9229056960718103,-0.1141111656842852
-0.003347149683175765,0.756472953745421,-0.016363200778690645
0.20391773415626635,0.4949712554137991,-0.06808714132691422
-0.10205941395469544,0.4601312212046894,0.022684040006641808
0.1704181427389637,0.6214254161657399,-0.04829458980534068
0.0055786507870915015,0.9253985310851354,0.09226480260155488
-0.0775988926240285,0.324185876551345,-0.10672466916443804
-0.0700533118096531,0.09347442379297899,-0.16570507471482981
0.026785425267613468,0.007728764245304866,0.16146705242209555
-0.0828535146424912,0.9639439096058562,0.18658216341749886
-0.049400240785717614,0.30503845604251484,-0.12058225833447299
0.08884990662954931,0.05709617332928813,-0.2007632577623406
-0.011758872194296398,0.6042050836621846,-0.06544868459726282
0.17996392709975972,0.44782261374492544,-0.0530105577162294
-0.016850250284704,0.9718687862845378,-0.17673822293880892
0.03846871035358064,0.009930834756754815,0.14461811563158705
0.08339451006258694,0.5759740225884734,-0.062149200015185424
0.04729758062683857,0.032410788183755715,-0.22691803210917078
-0.04804350317407298,0.28181603406805417,-0.16489532688135763
-0.024139191579586966,0.8677192353341961,0.06483393386740537
-0.0463323972618089,0.6406185103452077,-0.022464605639645335
-0.016492364708471402,0.03855179680848259,0.1765813869258273
0.053711,0.789202225487105,-0.06993034316689137
0.020567323599408275,0.13506996694567602,0.18193381184137727
0.08718608660078082,0.5701050467244814,0.06051440268675224
0.08138196970505461,0.00437155845764114,-0.16087744360287665
0.17007656314522165,0.4336637575576023,0.08505157721874203
-0.01651025346514115,0.09473603422050142,-0.16633885660639178
-0.07368825191298131,0.5467957261193227,0.00325665682935319
-0.045939549728410814,0.17097573471357022,-0.1914022592277612
-0.01712138673950688,0.8012435733024308,-0.049963718139576854
-0.09620782747526724,0.32101083832600996,-0.10000251994321045
-0.09068211670385756,0.41330888478971994,0.06985843013430616
0.018771316729105612,0.19720253186216924,0.1959912499221554
-0.039721623960123735,0.05091490538724046,-0.09525844734527035
-0.07693322985765604,0.5144529440268526,-0.035302274746209374
0.12817003060682539,0.5151294508396675,0.014212325523178615
0.13390651055341063,0.48502717003257123,0.015184056669370843
-0.0007674505267783946,0.2813837401775325,-0.17162543841794536
0.010032931514807624,0.4090745337670495,-0.14909430570298202
0.067688821851673,0.18761699725903797,-0.13293380632525292
0.159585840550807,0.4366400727056607,-0.011925249160805626
0.16065569810569993,0.4778687663373252,-0.0173366688607853
-0.06340801909005922,0.8256021211008683,0.10778094595186892
-0.11032626032534829,0.26327207444095896,0.12395954788737175
-0.11398180991166978,0.398764708734921,-0.05629708927385088
0.11076127776647138,0.028373520975580088,-0.24128101630639107
-0.0027213655567567066,0.44306276804053724,0.14087300107257877
0.07936935836792124,0.367111354941445,0.10077799961290057
-0.05165975073764599,0.8060855781046625,0.11709534403669783
0.1751650964927787,0.32829627609711665,-0.04948925459525439
-0.1060521151300212,0.2680131814988073,-0.11944282351734747
-0.19436259499185796,0.07913909544752719,-0.036640186457050215
0.07224245059622025,0.020910667234904305,-0.1284493601626019
0.014104652907405563,0.9058247681152521,-0.06992093934587423
-0.11305307859195385,0.0401176942569299,-0.10827422550184129
0.04997311687242474,0.3011217354460317,0.12893640683387053
-0.14388796788954236,0.23901866891566728,-0.09405271772590619
0.1571337677788482,0.4576091120378272,-0.06012851012067852
0.1689218593215939,0.6132144433350672,0.04718557427817037
-0.028442432397917595,0.5188187378048775,-0.10002596113897187
-0.032465353747187675,0.9883324012562461,0.17700089120714746
0.1716929656566342,0.5975314469256204,0.02704683069649949
-0.08202362505628404,0.1552667899008694,0.17978550608629595
-0.19287604232866376,0.0459196216354481,-0.018019165680690084
0.02474677028871048,0.52731356809571,0.11756109396110191
-0.033459203313774846,0.8436976532181862,-0.1334391624628371
-0.15329679055510287,0.36128401794995135,-0.010412041248727303
-0.0041537868604958825,0.0716049681594719,-0.11328991171481623
0.1304584364272901,0.420521432059482,-0.12375423568960102
-0.004952927740804509,0.1085503172318843,-0.07612550270924831
-0.09285649144858023,0.10270321069295248,-0.15870908375532491
-0.17489633371537444,0.13651837295824298,-0.0763540297372948
-0.15834770191182748,0.34830028034805405,-0.011791273451479855
0.08072413814839605,0.1486499154875236,-0.04829967807647656
0.18590081013699059,0.3459859242320232,-0.09402708313845702
-0.0772647338578742,0.9395235017069891,0.19887351141307602
0.0336304758710905,0.8063790240127365,-0.09015118186931191
0.04894562555271875,0.40665129276528966,0.16963208450335365
-0.04841874451223867,0.3359019219434828,0.1072435897658879
0.041564909013616536,0.7795790330052476,-0.08270343638696931
-0.031561164052187264,0.6800913860397253,0.04113206309611055
0.1304919216047499,0.44915517020605367,-0.030502700376606847
-0.09859604496390434,0.27287255748235045,-0.11433689022137349
-0.03698772533361189,0.09070723965042556,0.06434469852564587
0.14833084043946498,0.3870762355691716,0.010384992002501134
-0.06768489730300647,0.9280312897075121,0.18380516524273377
0.14468723004389256,0.007909611880169719,0.1582276236928212
-0.0778058943190418,0.3261838986027766,0.10211478267375812
0.019901169534790982,0.9298728656471381,-0.12366940018863959
-0.038704216937361535,0.7134533981433167,0.006295077833913913
0.0952688861259944,0.6499192408967597,0.08113731923022574
0.013173915735782719,0.22921026792964433,0.19337686593759187
-0.13646080829694732,0.29896228208591896,0.07786803933350142
-0.0758285995895592,0.31474475990428685,0.10550020219283264
-0.1531454724754464,0.3510069909502773,-0.03570350955560549
0.08924790907818327,0.287830627892556,-0.10489659345026588
0.027532923524652066,0.24235791874511087,0.18860671529604714
0.09643524748806356,0.5407255243323936,0.05916647321042781
0.1748431635945412,0.5131435478590364,0.07709712848021046
-0.14887579377216012,0.17834939852796522,0.12730063269384004
-0.00829888613623509,0.9520018291199733,0.1267082501817024
-0.0017484771729774072,0.4015014417546475,0.14122252343382138
-0.07324546273176222,0.918984551057967,0.18886150683273376
0.00997452284041793,0.554459301874191,0.09250902570687901
-0.038212266361208704,0.860310035370828,0.07014731907521017
0.14134080109296637,0.46899585436939656,-0.031147358081598717
-0.04242657636131664,0.574640801783065,-0.042616906468490284
0.08103402282056567,0.7517797760658566,-0.057124475687311285
0.168186565101471,0.47984047573124544,0.002190597718754542
-0.19380830289178114,0.22653317824651517,0.015505634835868832
-0.18661073242047374,0.1048606094871326,-0.0326172683367246
0.10426791500906007,0.18900963597204704,0.07439025414588779
-0.030448535284841788,0.4722928848423397,-0.10692276315943249
-0.17033689596746523,0.24284218453623063,-0.06957468045258129
0.10247955242421132,0.5974379291650765,0.0748488654770531
0.10652154376827785,0.7464249975207558,0.044962192501918685
0.02283566399004952,0.4898310539011661,-0.134794822771026
-0.002298027164151454,0.7717980215839287,-0.032110357601822064
0.06592244133714345,0.16498924009982086,-0.1372255105699338
0.1453139202933098,0.5890441591434171,0.037752087496802894
0.18120387163891452,0.3707316178361245,0.044080319082612104
-0.04717766959404352,0.5489965893226527,0.06221013853963551
0.20064877095139158,0.38587482273337637,0.0008280911751764423
0.009803272747468781,0.7710350484298658,-0.08665530629952634
0.12935764862150204,0.18727368235760336,-0.03202363606715237
0.1246228992466822,0.037036427185561334,0.14581815426199585
0.11937147314782959,0.40654916096275623,0.1334279683900229
0.03007401635549009,0.6430809186612514,0.08906976419074034
0.05200187009498401,0.7854376182939092,-0.04160972809674202
0.09507981246819427,0.6620835585296159,-0.07622500642108274
-0.1792592132172734,0.18168366898792387,-0.07418659308556783
0.029210809256890853,0.6805110376507941,0.0746001023372775
0.15492873277100333,0.5064842396947618,-0.07762903353140123
0.14100168956773715,0.19799812271803827,0.024893436355350917
0.10329685990201401,0.045376892562275964,0.2157402588296966
0.12346696312565407,0.3869367686137731,0.054190078159080717
0.01621811709649426,0.05055806034017259,-0.18566350999895667
0.025196933176845564,0.05262095383260301,0.18520081873676522
-0.013607799896087685,0.17513083077509975,0.1978171613046908
0.12664235885419162,0.22064750915220793,0.06629818699828624
0.007008652826523505,0.39639109348225093,-0.14694126608024882
0.1765992909483212,0.46114959358423757,-0.03879310345071292
0.010241107838051745,0.08080030944869902,0.12014863554382901
0.022265483304068415,0.8210680962894603,-0.04324373933992466
-0.09792583120505306,0.2642394572273255,0.1469021963968945
0.026696058902338494,0.04335115623686371,0.12666145608451676
-0.057274438145070244,0.20784336978740062,-0.18835510899677524
0.03618234603689564,0.005440717444715206,-0.13165871717917457
0.09896079967165053,0.6938917214879855,0.06336027045612881
-0.135682055897847,0.1287624421608475,-0.13694782100830044
0.17676576198213734,0.29207904553416764,-0.05395116141254416
0.02598489911385579,0.0041703737467752335,-0.17052291108432802
0.05119986043148782,0.16572613258300828,-0.1814152065525975
0.1989060845549191,0.3362744088597435,0.08994248546665723
0.02016787235764636,0.014934383746719153,0.2046259144385905
0.15526312957675142,0.4767906594014679,-0.028856475674546855
0.01164072088588975,0.6372347239462295,-0.08439551196655337
0.012142168919539158,0.5395089115293438,-0.10376861711610112
-0.012685857386946215,0.656255392782334,0.06390336461391542
0.04512196961598189,0.8219435892283625,-0.04952237036192341
-0.06489747963249436,0.03557400949774111,0.08754049192833378
0.1521837289842084,0.32874242182831037,-0.021868258517116886
0.10605573630195064,0.6413978157330301,0.08080314330347863
-0.030962265594155325,0.9716464920316878,0.15373850170307732
0.07531382161194955,0.00594580937470322,0.20247634672054038
0.011335970773016093,0.8947715862871392,0.11021506038937257
-0.08533780089788622,0.32539924823398775,-0.10428282440655187
0.21071183312573358,0.304955564727092,0.009533247007079495
0.0606167666140022,0.18774337743026515,0.12463643118567631
0.05166940009885895,0.5905238243702368,0.08449874652288981
-0.028861738839699905,0.312206762129822,-0.12396208467569338
0.09727705706534095,0.4294335062675028,-0.1424036201184297
0.19494969443141572,0.2863849378372681,0.03627675071651269
0.1279227465553483,0.41418494882816537,0.12223838516306376
-0.08966734419953305,0.9500395075798832,0.1959880696426094
0.06935093541876954,0.6993332004151362,0.07351553148593633
-0.03812469475836523,0.7023175086836463,0.024916537589307054
-0.1833494152464021,0.03975626350527506,-0.024375848258872946
0.05949186918615018,0.7537617521146771,0.06397653487939
-0.04261868489113564,0.3359648556062561,0.10859238021528402
-0.015608056668708438,0.163772050217173,0.1965947857421204
0.16159991363910706,0.43425081655229625,0.00044725802151620794
0.07700692043704013,0.006027134704485501,0.20180116878426121
0.14541359886414076,0.021114301925146177,-0.1551805303921212
0.028364679668816537,0.6608338156220132,0.08262315290998416
0.20548731845223484,0.3472480925797482,-0.040622934995492896
0.16457380584711268,0.47951815423340205,-0.11189498881521615
0.05249538775300006,0.4776100024377844,0.13125343168838716
-0.028435718033856687,0.3383716257210447,0.11169853315230799
0.18597125077405038,0.33112621022504285,0.008932191640550705
-0.0868277301195198,0.8726745501281545,0.17415244023439755
0.004031866946184895,0.42489634544733784,-0.14358438089021955
0.15334505756311945,0.24552232406907032,-0.02628360795885307
0.011213309775384971,0.7328594265189993,-0.08434994640064943
0.02287438069305099,0.12230631991036077,-0.07695785588015476
0.016686303082465832,0.4782407882810813,-0.1393113096238201
-0.14992395248537682,0.1389204607223567,0.11739407574251218
0.0982967536801134,0.4509800137228795,-0.11939100081180984
0.08104905528127287,0.6259229461362281,-0.09542482885507549
-0.17751729737143618,0.2293644303533758,-0.06500754947890176
0.12806226367571208,0.4776964663828564,0.03266513270499687
0.04987440801991566,0.1647325472572299,-0.18226251978759203
-0.025449921032128595,0.2979956495715821,-0.14170322316462336
-0.10550602664646834,0.4679101298896609,0.0018745300950306076
0.02685525367117742,0.33691504141024925,-0.12456086375626858
-0.07828963296585978,0.5176175942091833,-0.025656387942329117
-0.004291358791509447,0.15163164272518012,0.19350148718965315
0.134805664597095,0.006978073105913444,0.16350123133834132
-0.026261625641600225,0.9279485280631008,-0.10065843261212909
-0.054031219167631234,0.3113030375344304,0.11206824772394315
0.15091625813681103,0.48930930037839965,0.10867509357718753
0.15728411304381296,0.3305783421623556,0.012223133830553096
0.11740264400700326,0.6281109279432793,0.07274788265952441
-0.0064101758592390486,0.10979269792873209,0.17404100556371316
0.004721943973807701,0.06972126401432881,-0.13726700739986303
0.17386708048667956,0.47089627252357724,0.04317331617117399
0.07312780348684846,0.4426932411212998,-0.12347003695255042
0.20019664136188428,0.3822280003623148,0.06178515968863684
0.0997510150614778,0.3455811888019563,0.09047922644093893
0.026915943373719664,0.6589943251112556,-0.08883201339795266
0.16601867620867233,0.5119679862547939,0.08371026104918164
0.10586905891752833,0.039014688297638,-0.2180096841727706
0.1561635796461251,0.4212139704951976,0.06274492033595704
-0.13054530105296083,0.27333345274864723,0.08955366240659487
0.006689728140880241,0.9280619646117729,-0.0889987846604568
-0.07354317454987963,0.916222270490386,-0.1405316392037469
0.09319007611099354,0.6686472571006199,0.06924162474132028
0.12519405477848797,0.4346122013095287,0.0435015453477577
0.06412632815088569,0.18550544975156977,0.17329667778636057
-0.024969883068093418,0.9056997878090861,0.12925803161695235
0.028904966886569294,0.6121064801431371,-0.09058221902493784
-0.18964879275239624,0.19140211849159092,-0.04666506187384075
-0.17733066063098693,0.2924375575807137,-0.03575380986200307
0.004232232664349904,0.9203250017586107,0.12595963026426343
-0.09702594181527954,0.05386176872517519,-0.08670697228994562
-0.12486389340479892,0.0648965113658852,0.0491739172313603
0.06994581822897747,0.1761973420048828,0.09807596219958162
-0.11777705065806285,0.25104077182261886,0.12941393808071727
0.04298731084695692,0.12140800651732178,0.12777761133019003
0.07104006394405146,0.3578063052288602,-0.1257613873286738
0.08750099680068105,0.37410123967898135,-0.1480722051239332
0.20341074445054028,0.2974686744726905,0.05664041465980165
-0.08272578758577841,0.8783341899533591,-0.1818244443248629
-0.035013591768769003,0.8503176494018339,0.06503156674934821
0.09944819785707393,0.3691042723336749,-0.08164838446922026
0.08550783718232045,0.4005205449742036,0.15733369105870548
-0.01951351679225252,0.4324000489068133,0.11828797397517449
-0.06518052082818723,0.966803735843941,0.1944749810870487
0.13176365743516166,0.5052113817958335,0.008327411548284603
0.19304521779979816,0.41805935518562537,-0.014159713797625512
-0.06827755883044676,0.9923820977825354,-0.21794774604232567
-0.08411991330355942,0.9465118471253466,-0.1864543977079161
-0.009932968998872523,0.8114427437188123,-0.0960760717678136
-0.05656935034362599,0.8397957072719602,-0.17182235457905784
0.05142222957201803,0.058143792859827,-0.16875902381791155
-0.033604992747698084,0.3145504393781508,0.11653034826706228
0.021861109978912042,0.07944901626752597,0.005683805270227143
0.005218651137240127,0.8164149871550817,-0.08260427054447499
0.2017786266879207,0.37226678544233205,0.05450960505125366
0.03956447347116243,0.03299224503763065,-0.22193766912905566
-0.0083230697297206,0.06335092734954853,0.10948079417815684
-0.02954095985289177,0.7310249028846811,-0.028910875313626457
-0.17824849604959986,0.28270509132792987,0.03277157012356505
0.07212911146786236,0.18946302673406057,-0.14589405697653196
-0.056052006568433316,0.9250282871377257,-0.17258394078420974
0.08090140237697338,0.4385877393953904,-0.13116519773008348
-0.03342985264403774,0.5084729684187099,0.10166390341694503
-0.18803702032143524,0.2257937242150431,-0.044576370607543304
0.11542011238474761,0.45590413281762143,0.12573718037576648
0.059859917981814906,0.03050674998979549,-0.23149430943589422
-0.10245341619211029,0.38156113841086015,0.07367523084007213
0.07970588168949909,0.7340360566244586,0.06978103867343047
0.16179821506404157,0.6121540502111831,0.052945442882042996
-0.08740316207776914,0.935989259419462,-0.19711255362061697
0.04156933455390754,0.7869881039178233,0.03191441939552443
-0.04358120995233494,0.844865616851922,-0.16190292740682008
-0.04821066893780235,0.35345047205763014,0.10410889415773779
-0.05133684533606604,0.9222403573612628,0.11498667586013299
-0.16154961298880494,0.32756261072066745,0.02872454380733571
-0.018572111917718237,0.0671841552423188,-0.1056377467989139
0.09250655364907497,0.4249373127307732,-0.14594219983281945
0.1851616364642682,0.3919056259552639,0.10066674781533506
0.03290805676124092,0.26053506063510057,-0.1779415266223367
-0.047874632778614375,0.6505481929754193,0.015339984298927708
0.09244113308929974,0.6948608101570692,-0.07318219711790663
0.18144468643449463,0.4030942104680768,0.020293724819238412
0.20041806411405977,0.34027551953465046,0.08353135357348952
0.11706722731273278,0.033802532960413155,0.2154714164576377
0.17892509412708804,0.40343901719055575,-0.09652023590547944
0.06575116231277973,0.1616887361393522,-0.16211892816404624
-0.09315346513162856,0.273717725588045,-0.13841137263611408
-0.18862472006283162,0.17299504560333995,0.036500986884729296
0.14431017420240277,0.44155559492724755,0.1236340170913002
0.08508615999205098,0.6442037028254841,-0.09183143982184624
0.19140557149817472,0.3882165132106202,0.09105681067353236
-0.06567114875591518,0.9570000316597784,-0.15918235196174146
-0.008396390658604912,0.4977109485933218,-0.12238430843630105
0.07196860919991421,0.06007920696065396,-0.18874293640501066
0.11906316941481987,0.5159875794681087,-0.030543125556626888
0.17814863093846303,0.6079692576047613,0.017156799684595957
0.07904862231013131,0.3281075680853114,0.10875752836965635
0.08209093783986902,0.3552561829753949,-0.09938501713892275
-0.02385293289035055,0.48695735652913935,-0.11307250862392264
0.18813946052353345,0.4420435696309698,-0.02413342779109787
-0.013024301566020954,0.09037510182954246,0.03842151307590563
0.08751447036904576,0.38736222433678935,-0.10161911732871513
-0.16821669022222063,0.07412935352038952,-0.04632996311729518
-0.013513064027771212,0.9706420599509252,0.1578941950673201
-0.0669822838871914,0.8323878368338397,0.1611643080049223
0.02723232502435805,0.0072034204173742015,-0.2098035840396658
-0.021055405929140746,0.0417573910836097,0.17182594569581267
0.16142084201908374,0.43239073657339316,-0.08253919031032425
0.08183216968204667,0.5993980913297479,0.08416470587198818
-0.044933478820005826,0.887985333652259,0.0843920171353524
0.05490671447615968,0.015332304419612211,0.2255840534114178
0.13746810164147572,0.48790196347574266,-0.07193015336938989
-0.0008736989518590074,0.9387863288911487,0.10622415440099992
0.09785388119820247,0.17013915402439891,0.058944874209027255
0.15898581547083332,0.45044399191688805,-0.11380395265648185
0.16741478769232426,0.6063947485062495,0.04490321211741157
0.06358115114537945,0.20738250646709985,-0.17849139941599176
-0.001147435694232743,0.2911986495528771,0.1574493249913099
0.025918619411388955,0.05107328911343765,0.1351935672666156
0.008100346248820826,0.15194667812661466,-0.19030542726850203
0.032311102952648274,0.19200703895697666,-0.19312874247388914
0.08875598186853388,0.43756240497174187,-0.0769554507873696
0.019221717207036398,0.8402494451776743,0.08798795506935683
-0.03145849598483909,0.4708935594056457,-0.10556967744687341
-0.07316764764010503,0.45015875416085765,-0.0679750529933936
0.16782472898833647,0.4639834176206336,-0.04633072329556863
-0.10266204241005787,0.22930061446739258,-0.15995143255738806
0.04262981430668749,0.29287437336180466,0.13199879704525325
0.006980500341434263,0.6811856163865078,-0.07398880962906165
-0.05515036222590397,0.9967675522891598,-0.20948060407113941
0.15744775301704214,0.6949099007895746,-0.011682270925861675
0.14660620475917932,0.24421177429067964,-0.04002203501119649
-0.010664323739214165,0.805758912522854,0.09104577743950362
0.15086082532881234,0.5432348367869126,0.031585476364712525
0.03941168200870614,0.8320927745339081,0.09192708596215758
-0.10615921791842357,0.0536523038460503,-0.12404724108543254
-0.1424999084995377,0.31800184404365894,0.062230481268078924
-0.05643833641602946,0.5725884851442186,-0.015196686311754044
0.18362007116654652,0.32403430690156804,-0.016483586501781826
-0.064649722664578,0.9754341776091268,-0.21780986869543179
0.09649008687676405,0.15754844011082864,0.03967850128153955
0.13980497073066744,0.29870921061814193,0.05564546528789018
-0.11039426345926551,0.2504849448243069,-0.13860324281185848
0.056038861246233515,0.015136625887027955,0.12788850267013868
-0.04459437487711892,0.5496020580580746,0.06502986251889514
0.10269629786080485,0.2512619365699834,0.10216430808558946
0.10187371007044708,0.03979601439483765,0.23437990366381575
0.14597913854137684,0.4626036864765412,0.04770684565285023
-0.10067802508564586,0.11380266915974496,-0.1589201090426432
-0.06429428053013556,0.5580533553197671,0.01831805511331044
0.008227524346244158,0.382759715813776,0.14718790039161647
-0.021078595922105852,0.7467521510901031,-0.026762878738183376
0.18578171576235214,0.4540139716079577,0.00040313704876828935
-0.040758335569993136,0.5906776388418565,-0.03452700908855434
-0.03757983661901872,0.8348498977606605,-0.07372504745956392
-0.17190539060965465,0.1723406787666781,-0.09282897852233805
-0.026594566571613146,0.6949891334038344,0.041406644724197306
-0.03443746707373424,0.4584886525039232,-0.0973981449651993
-0.12305553324942894,0.12985869713228415,-0.15201341736410107
0.06476548279109337,0.3540156037809479,-0.1356630711199027
0.11357974176444255,0.17844466456564126,0.04800780824700457
-0.055924814632918034,0.5682217481162123,-0.024603806280458485
0.15893599644801862,0.2213580309459031,-0.007473172715620865
-0.08701010111553319,0.8793031780010464,0.1841773958763318
-0.1145285643995993,0.4320599478717592,-0.03252767191928942
0.15004116287464137,0.450664891249245,0.0671273289863411
-0.006305931030749182,0.00907046169145727,0.14406503523002784
0.0015038297888308044,0.1104186261177191,0.17272872130721204
-0.014906093960436443,0.4339026974746493,-0.125579366753586
0.021335948306248277,0.025414614867573196,0.11659040157181373
-0.09521619818181654,0.4105930267972426,-0.0678714128697414
0.1366211847575579,0.2775582036947072,-0.061286886425341115
0.1422081446126778,0.4598901022346113,0.006112851477994556
0.1622154389351853,0.47144517148920356,0.024878781410121092
0.014716237919088368,0.859105557612903,-0.0977262064326742
-0.024051729743969425,0.7614485048873417,0.03622669762851898
-0.12321950764811838,0.34358426774622075,-0.078048830545355
0.17186209006650763,0.44547073662349523,-0.07586606411302105
0.17544256228199004,0.2928876016175446,-0.013394740245016138
0.14620396077982722,0.022112997752100023,0.15361917304732348
0.071526309167949,0.19133373915153326,-0.164764279224762
0.16089142112228197,0.43498047545658813,-0.00857948798167769
-0.0315325718754627,0.9118055874344513,0.1351828522599423
0.15332992218750052,0.699581691842564,-0.023278947140963485
0.03759437556952193,0.46475388641459775,-0.14451326768720407
-0.18331944521417232,0.10347798221362565,0.03071392556595068
0.15447239253568507,0.5056735031703117,-0.07414708806142743
0.06349011552673987,0.03424748456648826,0.22834568226953333
-0.11541754055054736,0.016068704799692156,-0.1059680286723833
-0.09137312088626628,0.06058394089854235,0.026699506217934658
0.07921110629565403,0.4435799886023196,-0.09053923184943864
0.17062996362688046,0.4200424359446531,0.019334193034903226
0.16240103593915747,0.4424671226353564,-0.08611280516560615
0.040059265997030455,0.9054109920563533,0.09074332883271871
0.12944533986641954,0.17707227321571026,0.02155423081129893
0.0038808253475701715,0.23671766391078894,-0.19153861460846233
0.04871452011881759,0.8174308025920546,0.043004647495321215
-0.02879419290166561,0.5729909808870955,0.06489695176655395
0.07564707063874142,0.756613624212004,-0.05487385886479402
0.1307940198674938,0.010039191770540227,-0.14347114179859935
0.20274414568160962,0.49452991836820026,0.08721530154539284
0.05195393256136385,0.37077905415881357,0.1605282411595548
-0.07181807809056015,0.5476925397050264,0.008944016144154642
0.03179739787344687,0.293436693938909,-0.13138372671258003
0.1214447373134163,0.6564492063102412,0.05931764681506232
-0.05480042693650346,0.27992361456469345,-0.16319537655549812
0.19008625101257495,0.29393530061741713,0.05547743864541859
0.0636698079782986,0.2553850935654378,0.12738416566014732
-0.17096144961708054,0.22696572303678836,-0.07224505783453404
0.01617305683979896,0.5108417183419565,0.1253308978308921
-0.14146082808993984,0.3498756376578015,0.04801329623829506
0.06481096819395732,0.5355981800606077,-0.07822604556016467
-0.19649354931786164,0.22605975841997916,0.000943219137473956
-0.09000109424904223,0.2641237724643358,0.15553003621427272
-0.15148773080727354,0.2978483974120868,-0.06896930703896867
-0.15437158419095656,0.3571716946501292,0.008081935976898134
0.08598275344766323,0.4420649018529568,-0.10195470899543085
0.19072450552034642,0.5078106293790868,-0.07828969082968787
-0.020628435537309454,0.4016524291364896,0.10522460370775073
0.05847374041840804,0.14298659954592607,0.0735978780279975
0.08556379548054874,0.6505288352095818,-0.08916882182365968
-0.06623336581101308,0.9699124802555572,-0.17999913803683146
0.07031792413343146,0.262481893833086,0.1222902955859463
0.13294897120018884,0.7309284699824062,-0.004580965932202747
0.11703770422320442,0.24439209365067446,-0.08104237636973977
0.0809748638971959,0.6196411763009911,0.09068995572316137
-0.06183932881506473,0.5250343539036781,0.053808591732870226
-0.00689636512039362,0.7943432019296036,0.09402046175292506
0.0391310456245156,0.32537306221401713,0.12273682374418095
0.12999919103056726,0.7307320486092718,-0.02509570553768721
0.14402364118025107,0.49549921903560185,-0.07095474748347146
0.03751489828131614,0.2731505278973475,0.16521227267957006
-0.02660546647542715,0.5829581266893187,0.05873267748388856
-0.049787221984007625,0.8850801712848575,-0.14437073955407792
0.16857330792021236,0.4941236718331503,-0.04853309565417771
-0.024051529017082327,0.639734337136384,0.05742078630652097
0.08483307147179499,0.05268166098261835,-0.20861106385662226
0.13778641842725428,0.5358383581598153,-0.026912202847638747
0.02148926694657933,0.9477445292823338,-0.11840871840315971
0.030052982082175748,0.9048420643329399,0.10846412977365615
0.11443923473268386,0.6289212439875481,0.07547927217928925
0.18118370728909838,0.35840956479705693,-0.04309265842036911
-0.0010120705712177158,0.49026610642215995,0.13251239080750538
0.009453882692432962,0.10086891357859921,-0.10548782622500108
0.16033792834195348,0.4001846799913042,0.07507627295800834
-0.12066025048200744,0.14034622315528109,0.15485110751833606
0.10323495901872627,0.34792426167579626,-0.08390106177983327
0.00020555279375297775,0.004527640882209891,0.18732974111319114
0.10545431351106575,0.4111241757216418,-0.09720127961967397
0.1119699310234053,0.7491968719223816,0.02025607391909911
0.027018993853199155,0.027542575457349373,0.21131932777512322
-0.05156850713148466,0.5976061206315563,0.00159704974047844
-0.10330119311522336,0.01145311554926177,0.1082417552433028
-0.05353823815334155,0.9329523779115507,-0.17448581224431023
0.14463392865370123,0.41066968454854014,0.010353082466422296
-0.15531507475845857,0.2054094660704324,-0.11148031614690541
-0.008316192802612121,0.08781618194924652,0.09044673624819145
-0.11600438574177623,0.2048394399543071,-0.15709118561021393
0.16611021193983716,0.4884715314312252,-0.012218801440234473
-0.1888496965109422,0.09814159073323031,-0.03589906414121794
-0.03013306465072394,0.012855105338311131,0.10317196893550967
0.11849678941939934,0.006505277651894764,0.2420334174740968
0.15610072489765325,0.365819632068694,0.10113795494135258
0.16654832993548685,0.45830923039837196,0.061422452486820905
-0.06485788369340598,0.9303797262969774,-0.1894869208873859
0.14049770372300016,0.46649970215966235,0.03508818477341452
-0.11597153078306172,0.258428573501645,-0.12362694056208735
-0.09286249974900322,0.11309957188387307,0.16368524560393197
-0.04106567452961454,0.6356168160207396,0.038980310581142916
0.05943530050300434,0.1496819880095288,0.15802140762399772
0.09908587859142473,0.758091911049228,0.006576021810169133
-0.026645289876223048,0.7601362058691511,0.06854182208653421
0.03197638989512197,0.16750818882676288,-0.19038143063343949
0.17769006175475038,0.5089966913787302,0.086147748676474
-0.05195517566141049,0.9653529703815384,0.1564981110609052
-0.19241781628137963,0.05397948981265163,-0.028644695766829646
-0.059989036077552044,0.05507081496031001,-0.08800133326779994
0.18609109523973474,0.3312273067670075,0.006507796736452215
-0.07274472272477434,0.0711228836230679,-0.04475207299798793
0.10891029507525425,0.46065404948291405,0.10811186949757641
0.04697533679341532,0.5883207575215643,0.08267336960965715
-0.010339835610966092,0.8792380328599081,-0.06509115032540341
-0.12541590259038018,0.2579231123023434,-0.10184769565924938
0.022677666955406607,0.11550242738317998,0.10017654863648692
0.15988529769038554,0.26229699758744957,0.013785702795091764
-0.030799457736735626,0.14101395028329075,-0.18899506247839779
0.006162522614902598,0.78995524734944,-0.07464229527900174
0.09808133982046946,0.593961927564654,-0.0801477248512504
0.04140120926926422,0.6223605084904417,0.09135189774358685
-0.018734358420703923,0.40790083236679164,0.10989809950843617
0.13924437350430574,0.4311229331930497,0.12246066965439752
0.08747204408908958,0.00546377298102221,-0.23953516620469414
-0.0777522803701291,0.5296820198446991,0.013672502077911408
0.12783841485753733,0.7186792769158848,0.0465079309379672
0.0770785144843941,0.6622489171621517,0.08229464479870131
0.17573449349911383,0.4125923694198817,0.01983987371629784
-0.1534972527329939,0.1559116041617249,0.11829472645264513
0.09776002280344982,0.14739857312449564,-0.025851338349007557
-0.0006747860884315244,0.9634525455755993,-0.16148907628255904
