x,y,z
-0.41239926113691283,-0.05,-0.9373399582480295
-6.32218214304342,0.21009893832609094,-4.2495804240655914
6.912361917794677,1.2433558379901413,-5.193526781881982
-0.39640872158748997,-0.4730547732073289,-9.184824892316637
-5.640010237772752,0.8260973848356304,9.561316293592519
6.09608946702788,-0.6707834683693045,-0.7596593478167394
-5.893241270367993,0.5407242110774666,-5.193826766548144
-3.4525308184542847,0.0004079409549710977,-7.06985956942343
-2.7205370271609075,2.450621347439309,10.032943276343222
4.565762692194738,-0.36854612231853845,-4.572835974313713
-6.944045850262798,1.558407763025957,5.843551981711782
-9.624703396070057,1.6171066773095115,0.5484879400845235
0.23627247866123358,0.662200004306034,10.222264422554787
5.175269313523435,0.2679753330427567,-2.001664403089262
-4.470830295216338,1.4955204156090822,9.336244534484276
5.74265246505716,1.2407411793164735,-3.072596039764381
0.3531948232729951,1.2650805665873062,-6.853667096492261
8.110509633537996,0.7514954811337041,-3.346615858288956
-2.132552538754018,1.9728052569816446,8.223750808030081
6.939393495315417,0.009880012577987984,-0.944937704948473
4.301414296066028,-0.034573991281238586,-7.037265092788695
-3.9573152172351627,0.3975015286631224,-7.236595323554574
1.0557248079089594,-0.5173546511657197,-9.015222838471072
7.52684941651439,0.06979971776538252,-0.5956046674855137
5.372010918073828,-1.2004610271088298,1.4581153542159888
1.8725240166507104,0.25217897339709283,-7.623126396285619
2.974157402452821,1.7293863106401346,8.527997550014
4.487804404427537,0.7408544623368716,4.517430609090005
-7.221463781408983,0.5177935365722495,-8.051064007419486
-6.11498204962398,1.0095965017574735,-4.542823612466884
4.725909119480519,0.41741994539806204,4.508430016064053
-5.481913742263974,1.5832719020934305,8.821069822962244
-3.3292057365659957,0.9853446466581666,10.932520988596004
8.335082210186053,-0.002918001637765011,-3.014171295120006
3.428981465274246,0.34623206831634923,-8.06272782197845
2.8927832681762897,0.44270109959677284,3.913352587245498
-5.4862540445835455,0.4817672116338096,-8.998764754932585
7.41545778871166,-0.5486711110823701,3.437852407694647
-4.3364973547313825,2.2965606922982023,10.012261009438287
-1.945520339919633,1.0920951758815653,10.052188361315634
-7.352661171314293,1.9358004746047792,-5.615921272892326
-9.313176591293844,1.5431422851636327,0.9193651839024287
6.054298628661469,0.49657048680625415,1.1783502470610878
5.014672205730979,0.7152574808415062,-4.681397823730837
2.007342403506956,-0.05,-0.9438642630762675
8.388945941728199,-0.6238980498204105,-0.37444359931864335
8.411584269466552,-0.6473939770368824,0.2567420862430394
-0.9569206981218802,2.7375543416317596,9.71790251398201
0.19497089960531377,2.9626652207151913,10.258664471436026
-9.397491777400568,0.8996175173058611,5.8375158228188955
6.146463200566491,-0.6882941370464255,5.609948779674057
-1.71313659574738,1.6424684996005425,9.748000151562273
6.887770511580303,-0.32819197295820346,3.359003034818282
-1.6052018106184671,-0.05,-1.5000123125590175
-8.56886501403028,1.1289092117283295,4.722819635521946
-2.3306837343129403,2.3556500539598066,10.807457734374642
-2.0201869781840376,2.5238370273622786,10.271958410355111
-4.576115403346421,2.2686496881745635,9.828394210531588
-6.977146209017887,0.5000252938343801,-9.432453666173851
0.4992424807167154,2.929753622263255,8.83070703762988
7.3559041900130735,0.45786487260159037,-5.490391096021966
0.8510736922488249,0.3323452350843994,-9.39696642003139
-0.9089872283260272,2.1667587161760506,10.7829402923932
-6.71923323268787,0.1593081517978441,-5.000353791053378
3.4793869280796246,1.6286776181475813,11.525157335858719
-1.2416954554252733,0.010897001834172384,-7.496671405476375
6.031514325169363,-1.1883800658999957,1.2428118961235277
4.772824454631783,0.43938352102621003,4.552318082695388
0.7800243290533824,1.442973458938758,11.497598325227736
0.6518954949466548,-0.35,-1.710164599532117
-6.6254342110471605,1.931787289064685,-5.411294094527045
5.940912788703619,0.7939558032240723,3.16115934152868
-8.294347468067812,0.2722535259990906,-4.878176738969898
7.9567123109912306,1.3698455557022864,1.5187615868385045
4.46862833683245,1.2708034763431257,4.74104746511703
-8.763858319757775,0.9978668514763347,0.7091217700178177
-9.290427564905126,0.9043645340586738,5.812400908824575
-2.6560330579177283,1.0194632774980923,9.868453545490045
2.910337601237807,2.027258116420682,9.160652920337244
5.712709781140728,-0.18362762873160654,-1.4318624447537247
1.3834669561055575,0.5453861920908799,-7.595789192610473
4.46159345044123,0.6124180268434045,-4.707259506964106
-4.985297689227486,1.3359210801960422,9.194963388560618
6.720001125136479,-0.7310917530265664,-0.7422010061845004
6.1639771471240055,-0.01356015836503599,-5.96948696368724
-7.929636058116247,0.16358126334891374,-5.44372282626137
-9.226037922619117,1.1590710479396633,-3.604360949539113
7.597259038418109,-0.13131143319801963,1.3167603646525547
-8.223702277252645,0.566409436334691,-5.323231081079253
0.6343297470068392,0.6686512058645336,11.781076370114853
-0.08993335245499967,1.000799831691419,8.438489311711958
6.01294038339086,-0.06935088661654021,0.0206726025067432
0.744106519514623,2.1274095059001903,9.249466101142296
7.431362797706963,0.508378462627969,4.594155449731735
0.5218733886272505,-0.35,0.8948234233544468
-9.069976385871655,1.2229859864220967,2.378007284680063
1.1565825272392836,0.303898801076817,-7.100364476729597
5.620649113293868,-0.6575811661674678,-0.3844623442464265
-4.255811156523226,0.31538321126243984,-6.183180343263305
0.10493706558232829,2.9593862672269005,11.362528965420728
-5.038125060618615,0.5759385724702983,8.04123485831802
8.853258946850532,1.0409571716371728,3.0550077092094687
-3.1840552771538,0.351879409114351,-6.6181267286831105
-1.7487573676051227,-0.05,0.5138499942051378
5.682457807054539,0.8875265037626205,6.177031996169034
7.564559660426533,-1.236121536819024,3.236962612379239
-2.980759777207645,-0.15568303179075194,-7.860807854254667
3.1179362777029085,0.30921419848435217,-5.305006554204103
8.406003931026058,1.411017497953558,3.323768865542152
3.9819697443519253,1.2635003192513659,4.492345695116562
0.5133187848488372,1.343112816461496,8.801832609876316
-1.153014122526296,-0.1725725474498923,-7.194757334707502
-4.446534218559437,1.0106613933348345,10.10158607878668
0.8578464933304393,1.9343303987103362,9.593726384359858
-9.153708339596887,1.0300992120806491,-1.0198543307317383
1.2648343671355637,-0.35,-1.7078977742441595
-6.304402636024114,0.89986107337267,-9.149005643246769
5.9887795203221,-1.1885614186056184,1.23697645093026
4.066086308355175,1.4097250737903941,9.949071385563679
-9.29307477337317,1.0736405963501656,5.294296322991
-1.1468628531373384,0.19569901674426954,-7.208961386205973
-9.48543065560168,1.1468764599255936,-2.404475782204523
1.6614376462451301,-0.35,-0.8343674756504731
-7.9990102144326825,1.066800820308599,-5.813951599037269
-3.7561714647352864,0.9641357382270038,-6.597846420058231
-8.227634856947336,1.2194185704982583,4.432963638085921
4.2783176580212885,-0.7837431951504645,3.6790775977920305
4.3484906517388335,0.18257106605196494,4.319206557374705
-6.391701074488755,1.5949941293014511,5.862547694030715
-4.7835527470998,0.4070367418425818,-8.175741385098972
-0.44537377668784683,-0.05,2.0653328226121297
5.814405605512441,0.8016286264354856,-1.64340845478241
0.6174573754247823,1.2406528533916474,-9.451980929373022
-8.006463947265821,1.6078379610505946,-0.1802185993792684
4.755189590347625,1.2469279804854607,-3.6209789798664613
6.654555962794388,-0.4310329972266136,-3.899002364191941
-1.026410035014791,0.9124706049068138,-9.447795638141974
-3.655371380407816,0.8914594455967954,-6.985366281446391
-7.531926370733611,1.028821944050426,-3.4022716346030983
-7.563008533826125,1.926401306047785,-6.126197771930936
5.9978924353524965,0.7978188870490283,-1.0212316256190133
4.861548257323202,-0.08410736381255936,-5.0479167643013465
-3.0695964227339876,0.6408154697415585,-7.197115609367001
-2.505463380487011,0.40008538594465204,-8.983212273782101
-6.701228950196057,0.39784728457597274,-8.006932612192625
-1.4635732458950235,0.42625192575043613,-8.108693166313666
-2.5358545734542655,0.9926014595130526,8.50256726906393
-3.352126700021814,0.9762089501097312,10.68420864166047
8.232663905073496,0.42820046886204544,3.410998893881323
5.262185034660846,-0.08464607647519058,-5.913166681761339
1.1803775300339938,0.38438530822860645,-6.942823683948675
6.863384492982396,1.239141013289742,-3.9608900210634124
7.6996105995043065,0.7986783054988548,-2.339089623098916
-0.39792488146502264,-0.35,-2.1784700422171044
-0.12154798533490407,0.6534110547095595,11.214162505142937
-6.090669530704115,1.131818968958387,6.67464284225787
7.295706063370231,0.3242232919147032,1.2383936161415972
-7.0631147184056315,0.6751364357447054,6.718801198984645
5.347687126075829,1.0224096656532184,5.332811008333001
3.303972145539453,1.2370258442912319,5.003426746843146
3.8764218728891744,-0.02114309596782239,-6.96275133437299
-0.8222943789341696,-0.05,2.0245299562829735
3.1419128565103414,0.3339470730900339,-5.29434017833893
0.3564071861346473,0.6636345993950952,11.103033558224775
5.418054333267659,0.4162807300081084,-5.615742816842784
0.716903055736597,0.1081498536466512,-9.531481699563829
3.5660065651236668,2.159190195991188,10.47418696357507
-5.868911273270343,0.3274382352891833,-8.030629319990444
6.836947522197688,1.3168805393459022,3.4009312109702106
1.8242309146439963,0.4134475620675684,-8.08323247139835
-7.613825588338287,0.6612040172569975,-8.734744666436873
6.943209579397209,-0.2704112324750849,-1.3532869784410098
-1.84319425076388,0.4195160131466533,-8.786230666900623
-7.529779328722277,0.7862340485482966,-8.924008478185772
-4.753858141796436,0.9470777523225752,-5.274104403769257
0.13606129255102528,0.661146816568257,9.372988576868797
-2.638396107525086,0.8186758316024613,-5.219978573314465
-5.066951902839615,0.62017669062043,8.437627938242075
-8.139004434813545,1.2317631679296972,2.63672603732313
7.486896893528127,-0.18296061190239804,-2.7610068358050572
7.158920560598509,0.47401205703389937,3.890418566528088
-8.727040207786281,1.0067006289785172,1.6810640725740351
-4.45824938730525,0.9937718707275682,9.517144346224475
0.22339031861030145,0.6597890467346887,11.934525411956752
2.4639022509799373,0.2348708058286527,-7.008679076357608
8.284764416931004,1.2064290971262588,1.702367294791487
2.809822169612505,0.8462498517681045,5.9678407293394455
6.62140737971896,-0.42394315999624144,-5.834968694103336
-8.7915995568127,1.4557121992345905,6.021752800066054
7.344646379715735,-0.6515453379131522,-0.9530169440602722
7.685344825332898,-0.21038657590247678,1.3437373874876084
-7.448768834738704,1.5569285384152771,-0.3460958058951469
2.595377513494822,2.044669045769318,10.414721262324244
-8.167974291108699,1.0121241718608687,-5.483062516992687
2.0637365326103096,-0.05,-0.055695127557686686
-4.08818087055226,1.0454067207027884,7.952965391870799
-0.0013828610196071622,1.2716510694319996,-7.577286895970525
0.3275106443206947,1.4623029716698146,8.606087949175379
4.813187593112385,0.15984904656283216,4.57764691556462
-1.3144009661123133,0.06890117079139735,-7.63140225137313
1.264310939044114,-0.05,0.6332815320100336
3.292522428944507,1.2147709812121967,6.1593858600416125
-1.3492689010653667,-0.1114025452069817,-8.73060553856283
3.3367330128000097,1.241223319734522,4.825220708319982
5.776010670088707,0.32016796220941934,2.8862570800850036
-2.563324375579517,1.006369571325056,9.086985064395583
5.898407375782331,-0.41824586580868606,0.7375631717708222
-1.8349221187901086,1.4306538223042762,10.223208119731988
8.66019249693472,0.47680108052757775,3.222034845986935
-7.464450958116833,1.4225768004994752,4.580793265821539
3.0278106063897403,0.36974308335026385,-8.123032586943088
-9.639036343140296,1.1384834131896342,-1.1183416395776002
-8.967405667051624,1.4573621642987078,1.0844583105158383
-3.165718526185567,1.472402279082089,11.27147434173746
7.548492702565697,1.416930908526207,1.3517979011153205
-7.663673959996136,1.1965592433341858,-2.375498234375227
-4.957830617764739,0.8178212094969416,-8.670402601390158
6.317557476016486,-0.5699753803251104,5.624686833838623
6.155247832547638,1.2516528171382404,3.1439553500896276
7.198082826615222,-0.8763678233905285,-0.247444779769306
-9.486971063816226,1.529793999953963,0.973883299118594
-5.029477432094712,0.5078974690851533,-5.159534598553612
7.162436247860566,-0.16321086316704314,5.376197699032355
1.8476667383296976,-0.05,1.4818741285583026
-1.2497513981314905,1.2958024183459331,-9.002255299231852
-1.5241732626328157,-0.14827349201723805,-8.007509503319755
3.7839647159199608,1.247074391576005,5.099011807784173
-2.8138533185483334,2.3896822915550255,8.17458927422848
0.9603219307991884,1.3404239189540208,10.13748602100117
8.550339550458235,0.4081679225174829,-2.69551648741934
4.731162314719303,0.06477859091975802,7.507925263153778
-9.605086531230198,0.5040645550536913,-1.822436327532635
4.903961189673465,0.42832984111879036,-5.189465785204325
4.789905433229618,0.7371229080439762,4.879929583348723
-8.835861595472949,1.4021454799018467,5.39835533507025
8.04676065224227,-0.2348924158395762,0.4409526506019478
7.0403579759780754,0.15950168501501388,-3.4443618814614365
-7.403663445471548,1.152570826844472,0.6545305918243809
-4.766251449284264,0.308135466897679,-6.348653559757051
1.3328452162443787,-0.05,-0.5273961694923002
-7.670589075129294,1.120390831748276,4.024071186459568
2.0404255185769102,0.41154141141386347,-7.409396845955213
5.59118805013855,0.4056196237493517,-7.212672135801877
0.21894417071770844,1.2525553452607818,-9.539461061454455
-8.318387500128066,1.8077554215123497,-2.9039129823341048
-7.9295059660163565,1.0247814902005676,2.1698177824925553
4.767056252586738,-0.4211998389356101,-4.391880749587101
8.947360175198797,0.33663109901621024,2.8597390279178465
-2.031833082176176,-0.05,0.2200419196901353
-8.57223246213443,0.9817698159890426,-0.8965548078655335
0.6093877751102244,1.2520061048680229,-7.668660258390493
-0.11686455477894249,0.659877442700593,-6.322234006770242
-0.08141297233130529,2.9577670860661223,9.511372570075359
4.73407942748528,-1.0555811141643967,6.635856598035691
-5.616679446558286,0.3134189366114359,-7.240460527566805
4.501119685143912,0.7591343054244855,3.728622033130207
6.324711311572837,1.1832955657931559,3.2206972467661314
-1.0601658257848152,-0.4494660784528619,-8.725821196369123
5.392953039075951,1.2597684015582882,6.523720123217575
7.39297710358067,-0.1853674435412162,-2.2261408530561164
-5.784996763681308,0.4773793941557676,-5.969697010453137
6.85017997581907,1.447651614454135,1.6887832403574883
3.8026875740100623,1.8411592169620583,11.133562659266174
-7.4532898710714015,0.753551040631244,7.520659784110473
3.406698451943021,0.3596028825266785,-7.114389325682241
-3.4351724978890092,1.0199310558720902,8.014352807722105
-7.648942980733127,1.1222394989881026,1.4892613854332648
-6.241687776595729,0.48631415721927085,7.282381335776614
-0.18628575754276885,-0.04209443219376019,-9.897820667729508
7.297417439687545,-0.34954912516628434,-3.8073782130763787
-4.5244030732270835,1.7571459900783837,10.023859558949429
5.12388498598774,0.479702967304564,-1.8497837898455363
6.425296922213319,0.2587416690887516,5.6475988369405465
5.252089810515501,0.30614105027164884,2.295629460326551
3.4577043926100597,1.1018285704445152,-5.711317421484576
-1.4704739958254343,-0.2591522926258696,-2.1404906433088344
-4.006887399659045,0.8749096503979821,9.288486604588158
5.2167748687660485,-0.17175356978558032,2.206696234113364
0.5180999982584281,-0.35,-2.0904177374756063
1.3668090982546308,0.6425926594427275,-7.492554808358459
5.773196704141911,-0.9072906183537026,1.214115273242448
-1.325652615794551,0.2663165620507,-7.695306184072615
-1.6464567966866652,1.3277332195230809,9.352375280517279
-6.833769472878939,1.9640206501875077,-4.142170075300685
-10.490135652410277,1.0317333271263742,-0.6989157968890356
-4.645232014245243,0.7059227862590354,8.289683659064579
6.764920274905773,1.0266479548062568,-3.1771366251008026
-11.618406151819382,1.1820434582309491,-0.35022423227108795
-1.7563795693307365,2.254493080821145,9.091988692342317
-0.06368723983978604,-0.35,-0.42162529886852784
5.103468426805373,-1.044194784698253,6.517231808211521
-2.6128691003921913,0.5294846403820141,-6.942760913365671
-6.805011404484888,1.3226116013876006,8.269344061537716
-3.866198424498024,0.896071562044181,9.566825240114389
-5.13663370380494,1.006346845547258,-7.8338802548816675
6.600728778047852,-0.7560529459593806,4.0062450516143695
-4.386346597289643,2.1051609524393826,8.876790085537234
7.075817362111243,1.4121001250673355,1.225489922325782
-8.253167715338863,1.2809436202249602,-5.185194942968954
-0.6789175852825475,-0.45693500168755974,-8.012705663484294
-5.339413228913848,0.5085088091606843,7.971504503062784
4.687791253866003,1.0139360218423226,-4.840265535427926
1.446106202801086,-0.35,1.9625663259813773
-4.978776563073094,1.045482329467412,-6.602321582277305
-7.980284552137725,1.9684725954923847,-4.544884117689329
3.6129510769718487,1.9374131337982625,8.938944554476723
2.8942216283661537,0.35498582493397174,-6.545496173395458
6.072078607342942,-0.4179588932751237,-5.9610663743410655
5.2544931997271185,-0.7936574148121514,4.7570003083621675
-2.378678852693828,0.14775434713348606,-9.255246121540837
-7.933564093965599,1.1963664650525239,1.9609378310455101
0.9438402205071751,2.6612684685003902,10.456352808664379
-9.890147922923912,0.9521014222112187,-0.598271488488662
0.6644500728339593,1.2544282547496177,-7.003137515828752
7.340155432628944,-1.2389905736542133,3.269361866507907
3.9958701483448555,-0.015423752536672865,-7.606336502978406
7.048132225017415,-0.42549567335492666,-3.456933225446244
6.118792811796916,0.47824308067626986,5.635989125029559
1.324755589711307,0.8858873594051232,-8.538414434728798
6.232252942712059,-0.42724654262643913,-4.451226262528866
7.324105313565296,0.6394950228204863,-3.4504817803273617
-0.5704727355638004,1.2564830476307227,8.732109276474045
4.240628450722809,-0.49124448670181053,3.7888456308732454
-1.2203622999650023,-0.08663513482228685,-7.96560719587612
0.5266907252519971,1.6245741153688857,8.828952121459471
0.7785746948399777,0.3964924835106779,-7.750900116399369
0.4977123093102922,1.5401042730915104,8.786206690199442
-7.862197580570085,1.3323084754218473,-3.9586700611475414
4.765313598740435,-1.0213988506606173,4.878124993651402
-8.02186442059877,1.5643177591552688,-2.8214448844255307
6.21345986384767,-0.7779417958454964,0.7381271182114586
7.235569366748388,-0.06687752816319259,3.4344399198516284
5.29975410119971,0.8051996652980712,-1.9951284401276081
6.4726763259669955,1.2469843516785897,-5.681206576043125
5.584614433174623,-0.42789069985112144,-3.5008323113027155
-9.338100626932995,1.0024353996526585,1.707963105082561
-4.359004936014852,2.2833353845520223,9.616584165454194
-0.44997951039863027,-0.35,1.4694277332613965
4.678125133130276,1.5164296130617532,9.954133526286112
0.0008779441432233692,2.217184724855505,12.111009366018594
-0.5869584595845727,-0.45786489223539717,-7.70065896496045
3.42553186473756,-0.38522853592408746,6.740110680849679
3.148537381773228,1.8814394774579206,8.797710408374355
-4.773005552763327,0.8802854631663143,-5.006216942326055
-1.8835233198416783,-0.05,-1.717641689154175
-7.848067184417101,1.25007088025082,4.145379060439437
-4.033062077222296,0.3248037990336758,-8.012825966875067
6.953417325459807,0.7993558645933045,-1.967719408126416
2.235254260154839,-0.35,0.11815212694963773
3.4162516173794266,1.0900938168116854,3.831376563375601
-5.960710046020894,0.6987954054075096,-4.87653776413005
6.831353305004912,-0.22983724331138922,5.55946760660266
5.492292976001787,1.275769659729921,5.811087018796583
0.8690104349898946,2.2126159749370626,9.671732570104139
-3.7192225356856685,0.9267537112556496,10.163590400452302
0.10729030457895516,0.10151818113344979,-9.86671364510941
5.758456327020033,0.006406989048586609,2.90513731974111
6.554285432233793,0.18253080199242233,3.2758238466989202
-8.123125120953649,1.2168801840851367,-1.2539038207008188
1.2741899018461726,0.29476696650574463,-8.093330074336485
-2.7452827872985424,1.0145558694062897,9.99582946644751
-0.3136216841714707,0.9572443104843154,-9.893369512015235
-8.851233187413527,1.0659120164626805,4.223454437787955
5.142096364179188,-0.4562046549718919,4.934914168274514
-6.441159554191477,0.14407607267020506,-5.507205255531914
-10.568237268094498,1.1761114851554013,2.7706776036469662
3.1222835968875637,1.2162066493036294,5.862451732244265
-6.560816732841698,0.13191623961775,-6.088501199757678
4.920953202750964,0.00883510172109725,-7.5108366471825345
2.14716095894498,-0.05,-0.5301278380579753
-1.6696380325590165,0.42813641061140695,-7.384531212811632
-4.721841651173177,0.6765633409982349,-4.677168308573752
-1.4473000028555307,-0.05,0.49890364891986705
4.371219277762338,-1.0212404964129551,7.383311137296057
5.980925883053106,1.249770668453967,-5.8721694680640795
-8.683154115533364,1.1686628309048088,1.391596424423969
-4.932628056328707,0.6342103032358297,8.267536360046666
-8.350594467007786,0.9189769704797626,-0.44654560127528153
8.628642841377458,-0.09710288552204238,3.226185732520424
3.2613781119446985,2.213322370020826,10.418715036833099
-3.5177073815422815,0.39345248144817047,-6.504792686737046
-8.248828203558379,1.0233384379115391,6.462056771906986
8.368988753553433,0.04520012229219139,-2.335964451611874
6.928422241723878,0.6556167751474724,-5.867871980107603
-1.7488877475688738,-0.05,-1.2578725096411465
5.549195132120764,-0.604980905004161,1.3286992287799948
4.485120054731721,0.09415834068747553,3.146323084772634
-0.16696083870719533,0.10183136461320164,-6.324865007305268
-0.6920276536608327,1.283326263569422,-9.167178152236492
4.2681117125904295,1.237380262583055,6.238686104514634
0.8710886483158046,-0.010649127880207443,-9.36199098134455
8.732883165627939,-0.36027046938052587,3.149032415752786
-7.643309302881252,1.0454648611337698,1.9903790405818211
4.352462408104563,1.939326942961448,9.735270128509256
-4.905579146502392,0.3281771627499373,-7.66519428896715
8.982356659169398,-0.679911131323141,2.678977601383359
-6.501435130037412,1.3199968697311517,0.10358813402577326
3.5150479635780463,-0.01921162865700548,-6.277097985585539
2.363998142995361,1.4690418671870644,11.293838024362806
4.829006937937837,0.2859495199110087,7.521489983558835
3.297657497275927,1.3963816340119546,10.959179884458667
-2.0096340236173758,2.1167172023676484,8.381522646475647
-6.373144061853768,1.2069388811616073,-0.38547946544382006
-6.813393684554775,0.898518640391456,8.94502781916498
-6.337005346390225,0.35888803647175965,-7.739255571505952
7.1813397226519875,1.242018500275445,-5.141077580900329
1.9455025448849703,0.40845931531867463,-7.146986786447573
6.301122815772338,-0.3593808417891611,-2.901179826367374
-7.880302554232129,1.1807835660885402,4.451413384684201
0.06589549977590908,-0.35,1.404023421421591
-0.6774134107107609,-0.35,2.1419976936884466
-0.42116294020890743,-0.05,-0.49796166007975495
2.2554263381784443,1.4637756265123634,8.82158600800781
8.146286216647527,-1.0193170327848449,3.388136376350241
-10.29652492740837,0.9371124299799318,0.3615511841894332
-5.331496669158095,0.9430819412536822,-8.46214258889016
-7.97194278670815,1.0817791928792764,6.964073811168905
-7.810768287173474,1.2342109706036761,3.1740870598343047
0.9227154620079486,1.8072946134285033,9.887749590676286
-1.3589685417097117,-0.05,2.0031071277323655
-1.1938357114420988,0.164562728438441,-8.572237558053688
-1.7432150841157157,2.0771219234381695,9.682523885613541
-7.290546622338676,0.993619851527645,-0.45485905640115165
1.3013148140003747,-0.05,-1.5872974437032257
-6.702312184170136,1.0486368774705508,5.567842277362485
-3.791000411659889,0.40128569759505767,-4.946563365836011
5.300149974526904,0.5211317655039808,-5.341031792899081
-10.039322048155766,1.0088889335986961,2.5051766260206154
8.622283008335703,-0.895001010435625,3.209687425730742
5.585740668080398,1.0513391296677086,7.1686730968340715
6.123379746132997,0.5476519995725985,3.043487586456497
-6.735529569762013,0.5406229756961434,8.06811844536166
2.0636267945550966,1.4138888150390465,9.516839166971467
1.0761208128426942,0.16231945287565774,-9.07979717433594
-2.9727894282577565,2.445539833264619,10.706565979618647
4.831918085905184,1.2515085981073526,-4.988694618437307
1.078631406139753,-0.05,1.728090637217655
-5.015862258112733,1.003510275700493,-7.765034171609735
1.9767374022860673,1.407521488931282,10.669856242754475
-0.12523595308494234,-0.35,-0.9806758950339436
-2.727967469635511,-0.21034981634443747,-7.890876185084737
6.985367087479347,-0.36351617263575686,1.1877171932898758
4.0138529657058495,0.05239267388843527,7.232884098086356
-5.881365135002773,0.835610748920021,-5.30865121982077
-9.724980062474401,1.4758562174434382,1.105978548144454
0.20522275152499692,-0.35,-0.8980492062043957
-5.693464363563008,1.9212633886708046,7.7523278335976835
-0.47231368507270166,-0.4680915596320287,-8.768345084338282
6.183366747561675,-0.4279015097787807,-4.210609173104409
-1.1488395942831326,0.050331120192346424,-9.29096844319752
2.2849412244620866,-0.35,-0.2784957466703717
-7.896435638469565,1.0940313605880994,4.134647815903721
6.644312239348222,-0.44255218530688245,1.2119262946494183
-6.931203436577048,1.959206911425883,-4.398182841039191
-0.7956521470828343,1.6791515145663543,11.174920678934539
5.712490005141441,-0.5344334664415578,0.6226524035651793
5.705891110213436,1.2474648508695902,6.785825453163025
6.456000413405254,-0.1802402731990895,-2.5974437358844025
7.304929070578543,1.0520936859598538,3.476537400091796
-2.7957484582341205,0.9365031940431606,-7.780794570125601
4.555187418747215,1.5579753089271255,9.114747559116044
4.626674526900302,1.0486148209288497,-4.849190272460349
6.977075898920187,-0.4283206301444135,-5.038569320221534
-4.10807791637906,1.2766174497841385,8.556709757577124
6.648524630905731,1.3823685829633778,1.1694590485527054
0.8030554812591044,2.974555584489507,11.010849995270949
-2.5670626110953143,2.442349543740907,9.217592622339035
-9.865364156351557,1.6021493905492976,-0.31944144709839584
-4.081919942271737,2.3317354571194575,10.404616447539231
-0.13439477567889452,1.4413359741810727,8.447065860499666
-0.8079333050246381,1.532560694479377,9.179332305914041
0.6043678401601243,-0.05,-2.0260565833571986
3.38908071824572,1.639675848338633,8.422837584859286
6.568044170499526,-0.8717745524373275,0.1833664278958128
-10.626663520110476,1.0628638198294247,3.3014556734768044
7.836581096985157,1.4315296535594977,2.4916431403705603
-7.364209798797107,1.063756178006747,2.6928727998715583
5.609614351257433,0.4675322611506667,5.4931696225041
-0.7238516780683413,2.3968252888013923,8.939409113793708
-9.78605756403493,0.5262017982365509,-2.294465340047322
-7.161505109948833,1.9414831804508181,-5.274349097053224
5.756191347200501,0.08485466731194552,-2.3954500010788737
-5.4895856958154505,0.3092896911409438,-7.0929685987144016
0.03309627577487284,0.6567000158509321,11.193319099829997
-1.1448373843577795,-0.21475426044834434,-9.309447106622752
5.0594644975397784,0.7825845761937739,3.0745756870045557
-9.045336968609007,1.306132623522843,-1.9465769133708979
6.473483717027152,-0.42279437073159104,-5.979047699452762
-7.153117336820372,1.173353509607598,2.561676485450999
5.656341138644939,-1.0366427133443845,6.8389287098069484
-4.06086711023677,1.2058167398096042,8.510222988313643
-8.124554892733649,1.0423845419950193,-1.4443008804847397
-7.789172917199759,1.0316886336535067,-0.9519517796099318
5.158446562932526,1.4216651537647296,2.0629526181530795
-2.3902646439622752,1.6315906047903361,10.935139225108925
2.866953492000201,0.22737843837462604,-7.688016629640464
1.1706686299512892,-0.04497873559892929,-8.877140542680891
-2.7405707781004716,0.8402030172189517,-4.65699846498762
-8.583236929045178,0.8763263128430469,4.9170628020575275
-2.1803744031279715,0.8469911141579122,-7.974036778742098
-8.16103873559068,1.143239654405869,7.519756463665092
4.224542073187339,-1.0564942153509,6.02122232461017
5.54754322976856,1.0245033456939654,7.2284978013313825
-3.398974358325706,-0.019140388240513923,-7.257175585591339
7.0799930912701,1.2391601570116484,-4.224005249967693
5.279880731699381,0.1941469121353051,-5.571362947029139
-4.297124831969819,1.0209234173227595,-5.7648889235548895
4.983535301112697,1.0443156718633944,-7.482995967350993
4.72225213762436,1.2487764162784696,-4.096843167469753
-5.923336188562993,0.6957585173990043,-9.503941964466632
-8.225468394971733,1.2410404709467127,3.995868591132117
6.034975401249661,0.7807677786826451,3.7987671508092085
4.614790185999537,1.1322732432997615,-4.693310954246248
0.33319347035734304,2.424100046997032,12.04307188324974
4.886146856874896,1.103640850610543,7.544040694365693
8.263644911734623,-0.5665424705960606,-0.700682055389011
-0.8036962390662009,1.2961964187244832,-7.659902053067886
5.502897295307958,-0.07767862908691991,-1.2887160276484382
-0.6088886999984823,1.7396858206289783,11.606642974651104
0.9073316373811402,2.9779885271158695,10.024117101683307
-3.3626137476851756,2.237825109723783,7.910918664238939
2.672513828364087,-0.9359324369376687,5.544400789141103
6.524259910428606,-0.7794139350046545,4.9749802123869795
-7.616074754425576,0.9034330629136713,4.496442287170341
1.5142232923774679,-0.05,-1.2875082784853196
6.178309848430559,-0.18942575980924037,3.105270813657909
8.932361986782668,-0.6830172244891377,2.3429056827925074
5.277425565277943,-1.2199424759492652,2.072933732889174
-7.59001544286088,1.0585346429736742,1.7166833149668979
-6.089623090594156,1.2686068170723666,9.125345943213716
2.1085263343070975,1.857122949010482,9.68591564942093
3.4727641819102337,0.24002464540400834,-6.602582522688105
-1.371658056500978,0.7529655522824903,-8.573382477864682
1.1419752767447133,-0.35,-1.1231003588226853
-5.357819259978496,0.9304051254484745,-5.686234869890202
-1.8904936371941827,-0.35,0.7349131007750094
0.96173742675117,0.9782730348416103,-6.642085800592595
-5.124832611105706,1.0397501528722548,-7.314193028988593
-4.0088582517854485,1.0026990134344471,-6.519134297871143
7.436630366301129,-0.6944099808268029,4.452529702827864
-3.809507925231442,1.000286611132055,-6.010208202488749
3.045310266700099,2.279817642970597,10.19042119165225
-2.446232631871667,0.4736730312387739,-6.855755566433379
7.434583857142875,0.2550761508735175,0.10710732222560385
-0.7829572538635741,2.473176310176094,9.055797507112805
-0.9314026950959445,2.8203060467944114,10.744434317592003
-6.800285308722469,1.0820126174769027,6.054080993469331
-0.17594528627395523,1.270160713920566,-8.692694663222833
7.813396524567088,1.4064994087719964,3.3087307513134343
-10.462878438901416,1.432646421042064,-0.7693437379336314
7.45385983492538,-0.4565579907598082,4.676051168493071
-7.4263713344010025,1.075979304282362,3.453026027617227
2.032141500153106,1.7838847119428578,10.333652069093953
0.16400036743556323,-0.05,-0.603937966191719
7.506680211535637,0.14117295972128463,-0.3996225937884835
-5.67785982996818,0.6277725672900157,-5.520396698882626
6.791071251167484,0.08804018480068543,-0.7696816257744603
-9.770415889845351,1.2023080651888678,2.272208631406444
5.535841232654051,-0.18317995882640126,-1.4000685486404763
-2.598520839078578,-0.08868101780017829,0.01501825913722796
-4.326559998497709,1.1740811163475051,9.04882964982628
3.231393689856335,0.2175841603443562,-7.352163037638483
6.717378149958273,-0.42529256524050546,-5.573215039943093
7.0306368130680035,1.2410299433659668,-4.686319580488565
0.6962222926074539,-0.05,0.13426296639018576
-0.9272074512868873,2.0745551357922993,10.685223239609032
-0.2950405868950111,-0.35,-2.2274032984185346
2.275031694968943,1.9115796346663112,10.268637821767673
-2.301303874561631,-0.35,-0.4106317613487196
7.497289401266907,-0.17887968428875112,-3.567350573317538
-1.8576820349131435,-0.35,0.9133803175815256
6.067541387647359,-0.7917699320957483,5.212149995892252
2.572044596196652,0.34840008692625724,-8.559756989778483
0.5082182388946324,1.2624113160963444,-6.504679308644367
-9.480811738603284,1.2321254454119424,4.171974642137868
5.368606673321762,0.35271235281604474,7.399307592953119
-0.6185028036851894,1.2905600995451418,-7.636098333201966
2.3959273941109016,-0.13962885795194843,-1.006500810296858
-7.304505309800742,0.8615027833035055,-3.758255838970904
-7.49198185765319,1.9540865500617073,-4.906884633790329
6.578280813765427,-0.5744898621624508,1.1066622986650005
-6.438761934403753,0.9216658944962601,-6.9345963115506795
1.3715269273089408,0.2735884793727138,-8.21441178822046
-1.0811031509616127,0.7968508049924485,-7.124409329941876
-6.251165035779239,0.9524458280215204,-6.848300646666894
1.8363175593082857,-0.35,-0.08747154443449112
6.276116158803643,1.2460430850797095,-5.184968317204874
0.20652183623083586,-0.48025006577953333,-7.315405205200292
-8.037083854357492,1.0434359419091006,3.473601005490267
6.393231768267349,0.8032958116610053,-2.360929698601331
7.101597553268512,-0.17567672186209626,-3.5193489556488524
-5.065351929942316,0.31441789219455873,-6.464643027266857
5.535613162257056,0.25301452481686737,7.247334044552934
-5.816864666763596,0.394777635527613,-6.44565014504003
-0.2977449197054223,2.951272059056768,11.056587151789538
-3.267062168310951,1.235137292878092,11.286942975088593
3.687479919178845,1.9602090477672989,10.889109093026873
-6.695093891860567,1.9298630882971621,-5.529516448602456
8.982335390116798,0.2865509992972233,2.6227395981095025
-9.112334843206686,1.1663031597750402,5.141353642702424
-7.837038390801335,1.4693792849338334,5.445890284714462
-2.701505008991095,0.9861108129092887,-7.872936148119361
-0.5359991072235911,-0.05,1.0477314677321594
-4.050216329149099,0.4281647088393803,-7.516493247320841
7.339178714724418,-0.7332629469383557,4.152926303177342
-0.39055489974903856,-0.46432408478532317,-7.752839118754331
-7.957165130647839,0.16121751173355614,-5.558927952224401
-1.3595561395544127,-0.2635348856286235,-8.798265389714057
-2.582434020229733,1.681306231643668,7.926054605396702
-2.6027477105510095,0.1519240579615618,-9.270631441722994
-4.8210862047747165,0.965402338278679,6.893221716771345
-4.359457217663947,2.030659913739865,8.833994992133505
-0.6337886585704243,-0.4583893975465973,-8.019911171581114
-2.0728238833348906,2.440136713094926,10.46137383645997
5.859806105750097,-0.7960472401052049,5.261444166676937
-0.683882282286203,2.9437029806656105,10.594062446259144
1.2575823968776396,-0.11158247678488209,-7.175725908502886
7.401953813842546,-0.18300574440132122,4.373413125588346
1.2686496992111118,0.29299707554103493,-7.1037445834768995
-2.3064892257161795,0.3097462228197693,-9.103555096136862
-5.934300206614749,0.46113637145717123,-4.9898896856790955
-6.575708751920898,0.15450942584775074,-5.131117739641454
7.1540776070560685,0.19223102067561754,-5.721294414833596
-0.4206214949020891,-0.13375626978858957,-2.558572636662851
5.239281097530251,-1.026864754978708,5.782106824078618
-7.996297210472921,0.3255036150998605,-4.046356084775021
5.389498302353965,-1.0523542564184103,7.318497219918273
-7.363023362886252,0.8275563639648864,-9.208132198078584
-7.31452900177774,0.8494329447019252,-2.36579742724431
1.514863061337099,0.28096249571159054,-8.080132416072596
5.8491314495249025,-0.6769265128314763,1.1947771458630585
-3.025951306491728,1.4786216334418558,7.881124802795484
-8.306589321134302,1.3368360867507947,7.370726698754137
5.359346277391622,0.08888006656308756,5.293229547139768
4.742471598702124,0.629320252681741,-3.1705084301363997
3.554238245960537,1.2318523204129355,5.601088579674738
-2.547225486935553,1.0339459199139005,-7.866877545536344
7.967806596578267,-0.18412202609647252,-2.858386721930236
-3.3360592196819763,0.9408013387899025,9.366206205365438
-2.372082218313749,2.4416581651466465,8.532072046948876
-10.357497597960867,1.6052665729015498,0.03408128438456497
-3.221521675014492,-0.09883674409004696,-8.010063638745669
-11.863587630406702,1.1401344654474852,0.17868729075609158
3.912256690593763,-0.5974905561157156,3.9134668041902936
-5.884813337006091,0.5953519181088383,8.795031126271127
-9.745534363160251,0.6010020946278128,-3.3236215296942664
4.33324931178754,1.2194941942818467,7.264377006510755
8.056082020338977,-0.18176243769976871,-3.3801864983264593
4.945543723019884,-0.06346473896433359,-6.5904952746457095
4.438320508812842,1.7951108015254393,9.117618809217097
5.63708920100332,-0.585792277196026,7.113983839466014
8.394077474082046,-0.6184232194230337,-0.4312481689332618
6.187991812579449,-0.43150439370489685,-3.21218788986127
-7.948730379860413,1.0014022237686184,5.95883422527987
8.050992932870315,0.70472904734822,3.453477608302465
-4.101636273810071,0.42034542168937694,-4.9082300584006
-9.296816743570606,1.2433329753311682,3.658288773253749
-5.959051716218456,1.0256417593210128,-7.51153435710783
7.39699881038466,-0.14928144819225508,4.3591947488887826
-2.4900775651343103,1.0266177841201274,9.561286355069612
6.702295592653284,-0.18623294703371912,-1.5900482188160874
7.844990954735801,-0.12293032916193727,-0.7568616728933933
-4.305194690710855,0.8379397826388133,8.659234242593278
-0.9766572808640793,2.594705265864482,10.33627136026166
-4.420605579395742,0.8944734539645909,9.385725979019835
3.179073593691974,0.44364522816238106,6.496839431745077
6.177799493759279,-0.18751771860838387,-0.9840958246578904
4.353691294232899,-1.0450549204366995,5.587358913107475
-3.951362082937533,2.3079478202281933,9.113252520233043
-7.463407883061065,0.8084005376054841,-9.05020735947909
5.613760564853173,1.2714037394999433,6.198750262605213
-5.936035187435837,0.8513490497396166,-5.796215675021137
4.525203448484219,1.5090577066877604,10.277605410693317
3.890610928233146,-1.0665214533855145,6.114469124693171
5.914446854367405,-0.5051533562636745,5.566231485750139
5.741349268421997,0.2882914898528399,6.514037840828291
-8.147137643271094,1.4011700025756362,4.84977783713595
4.970377421544749,1.0353722898979818,-4.753328935815024
0.8123965331779135,-0.5004377177309408,-7.518438636533413
5.844914562243151,-0.03816643860746427,-7.099798245059659
-4.407082087464138,0.7712394476242075,8.201720245203008
6.518149062289824,1.2452722875040145,-5.258257898105092
5.828559468989078,-0.01188866019701984,2.907998176492593
-0.8318506600606227,0.18641735970576023,-9.662595811660527
-6.286442747630061,1.049660762124982,5.256405739534196
4.483567756955653,1.6601621653226213,10.972199400618045
6.506809076514374,-0.024017901327232583,-2.9033164529862163
6.282185985550167,0.15983930166547622,-0.9254372336434773
7.815290840599688,-1.1978976730419102,2.0486255780865905
4.338099653215686,1.4591347081306394,9.71621953622993
1.039125463993805,-0.5147762161270313,-8.684300896407656
-3.296322697927346,1.1521135988407425,7.952570201862193
-3.694961677069105,0.7652615736037578,-7.467789085917415
5.543890287545831,-0.7791093225825225,4.313562684482916
3.290022783601224,-0.4246708861685402,3.7887578161376436
3.323541423749747,2.3270977522844465,9.819101799672653
0.5515632353234585,-0.49670442434888956,-8.227487186763787
-1.9515471766332446,0.4241025778721269,-7.088353238818558
3.9034937850844718,-0.04708632610225083,-5.322218370487959
-8.49451233015841,1.236723097583979,2.7285773459164875
-0.7146762761095705,-0.04288806926786193,-9.742307024175757
3.078326903857838,0.22234018884706702,-6.973476024343189
1.8576009020976647,-0.05,-1.1502270409233848
-6.296417112121781,0.7725822687253079,-6.328163920365402
-9.972942302477831,1.3600816049725417,1.2503760275186733
0.828806348859279,1.3954476154655833,11.364600454741261
-4.521046303035665,1.4814835126424917,9.840019772794054
-8.351835415740634,1.010239719150275,1.8774050111924887
-4.088316331138103,0.9716690335501551,8.06290972065001
-7.685194872772489,1.9595761033057286,-4.772305506663955
2.978183782524504,0.10648986081303938,-5.459936147379304
-1.0758486263922649,-0.05,1.6260886043268648
4.228522581423253,0.444526715528021,-7.818875149118161
-0.3078241011393388,-0.05,1.1398082729353956
4.798524498653074,1.2347710706500974,7.065796015664196
7.245978857751536,0.29330394470173815,-0.30897912795791493
5.835446444073054,0.09501372739249747,2.9256105179747727
3.392503318371932,2.070607859989869,9.187123862151635
6.1329991658490455,-0.7627464334087187,3.9890773996017947
6.7165909963113934,-0.430448443321019,-4.135638252151788
7.193537582169393,0.9441422924204607,-3.637015503322214
-5.595331602530036,1.2970546949016624,9.314171841578442
-3.6272847344317216,2.3505121739859263,9.533784990969325
-11.975487708691931,1.2685283440232233,0.5737119072864988
1.2501435011767492,-0.35,-0.8020591166254218
6.160725598933091,0.6978216326225103,-0.8393878033359681
-4.229735996635276,0.3240299132666826,-6.817813638853705
-8.430662712131731,0.8663866695271198,4.676115154550798
0.3243418273601033,2.9644184436240346,11.040065763927668
-1.9537774396519652,-0.05,-1.5799226789424612
4.443306398213405,0.04907418470367886,4.497935707417305
-4.629706213921649,0.32492145680723966,-7.362154320825523
-2.132334288012857,-0.35,0.6307632058276695
3.6548666890087596,1.4925474884802987,11.469496845434033
-3.1790928037835884,0.9859990599285977,10.447094523983376
-5.61898396786902,1.9093408595636683,7.79313367543146
5.06747824012778,0.18993873257604266,-4.848583937388031
2.533360002455425,-0.46379912524182365,4.406225464790118
5.273119197178166,1.0006560797231996,7.4536931130163655
2.9388821170493475,0.22243924126260203,-7.174859723383913
-10.839101759677105,1.0798447059158969,2.6501738240647272
-1.6695836184642299,-0.024675852014677868,-7.006329682341626
1.2506454080135534,1.0139606346358563,-8.77932812787842
2.612239978549475,0.3299667466542535,-6.37496200566257
-2.268990349724821,2.2319962285480033,10.752757996475824
8.332015338394633,0.660953877825625,-3.0187112784844743
4.617221223560573,0.26077177894053466,-4.638025991225896
-9.489467340169144,1.030011434507762,-1.970052211444327
5.757490247598408,-0.18228798215239717,-1.724506160173788
3.4058878912060218,-1.0829997693966504,6.351018251465456
6.765686192198017,-0.4255688829231836,-5.55373132421707
7.24658671600667,0.8283189121382902,-3.7121881582177356
2.475001894850104,0.2970377444048167,4.749216243472733
5.661546121952497,-0.42163270870243436,-5.336059711916761
3.1185568873494156,0.631550862136829,6.435725344998725
3.6931427687685017,1.4746923598673185,8.673199452258212
-4.169478934555377,1.2480612954105272,8.334344415086699
6.720471345931078,-0.7464162404711173,3.664936352752176
2.310456392872676,1.426993913576232,9.085553129261275
0.849770007647521,1.6360013618263216,9.52784179263488
-9.008062011375083,1.4698103312313917,-0.9944281377400774
4.240678874056456,-0.604670844945396,3.764218729819268
7.907410523150936,-0.18077948683581918,0.5528311429049718
-7.419326728098313,0.7196730628478631,-1.9133818193252612
-5.885575426163648,1.3897092115903513,-5.179764544998008
5.936085031040513,-0.6629405770328469,0.8915409765826467
0.6672932792720561,1.2460945379282589,-8.327699930566142
3.2227486921399375,2.306985037708612,9.750559406109739
-9.060298889375261,1.5383815457781926,-2.856802228525527
-9.829436499516863,0.9060937972233576,0.14612250005213087
3.860251044194349,1.2437069898941868,5.375399906871678
3.5527939395344816,0.22675944096496514,6.88216900866282
-1.9261607916680035,-0.05,-1.4802779988264048
-10.896617798143994,1.0964848517237484,2.702994841383167
6.454385983323549,0.798420199097257,-1.447366899589173
-2.7421483507462145,2.3046395796213894,7.881965575453776
4.259872037308279,0.7324062728898537,-4.796998412495517
2.859967537397993,-1.0736037876153912,5.146684156415561
8.96516739987975,1.1406598194662128,2.589151078988982
-9.537728592185129,0.4000782282611708,-2.8897957511128887
-3.8590453175002954,2.3133193067966955,8.992052913123741
-0.3030074385811514,-0.35,0.8165356671795356
-8.122570802784695,0.5099785012125844,-1.2806248261976194
-8.424224274547445,1.0224612317867539,6.587937580973911
6.330992397202493,0.7478415041218396,5.431093281245739
-10.530817610414447,1.1821473924282428,3.0681542942822393
-0.7851439224471128,-0.44912372455754596,-7.2908505866365605
6.021964460081897,-0.18415949019490294,-1.5365952426202392
6.281216714174912,1.4433777115712036,1.6722430019405796
-7.44708081654529,0.5443550145686514,-8.666937809741592
5.179258699189829,0.4171839849437833,-7.395925239841066
7.430169588400375,-1.224787453481976,2.8269391725455293
-2.3755373676941316,0.6706952954330856,-8.542064937530958
3.0370324574405387,2.069118882525565,9.253728900631518
-1.009091389751064,-0.05,-0.43409317195983066
3.512755288785247,0.29611131494206355,-6.644081543327159
4.469281630958702,-0.06567797973351008,-3.936578372881173
8.272887046446906,0.5919088673963994,-3.1062414509435508
5.376627762563146,1.2890249021001692,2.539296224060293
-4.276610918653781,0.9837703852114075,-5.289808506769203
1.3625560132199002,-0.35,1.6817048133385604
0.5954980081534637,0.8584463163185201,8.900967546650682
-2.100696134322353,-0.35,0.5620437442636548
5.148678513591096,0.4842050725240714,-1.9820939854024453
-0.9796327370013331,-0.07409918786699388,-9.523484437824136
-8.798750017700169,0.9576303750627146,-0.7886206328872682
-7.922413630175404,1.5197442391565474,-0.8053364087617882
-6.28780404376162,0.3844406228533912,-8.765770346828338
4.856160911898386,1.2408045394417666,6.823328785655491
5.347059150324686,0.19948552445994605,-5.621176100491772
-0.042920166407123074,-0.35,2.3987230443319505
-4.39015015789982,0.3627556548668667,-5.446843430841147
-1.1835061347134372,-0.4431902531371135,-8.336491117711903
2.1806209930876244,-0.05,1.359129607414911
6.845744534990897,0.9025813393311461,-3.240086244863921
6.335454427319091,-0.37492028645161946,1.1174336711252413
2.931186483815166,1.889696548236092,11.037518941305873
-4.14892998632865,0.42343135172773605,-4.915465695698004
-6.157682124678153,1.692559650610467,-4.476621366030696
-8.892276523228766,1.0931530714756255,-1.5414702511628102
0.2144890729017819,2.915964129417286,12.092329383434905
6.565887598128771,-0.17785958205917796,1.1188946562181141
-6.940569487660243,0.426283833472967,-8.36415511089474
2.6684687223726336,1.3819903090521812,10.76441581394613
-2.581400979590506,0.9976362375957887,8.83660773131687
-9.52793232409441,0.4678653001894423,-1.9430636102078538
7.465121539529246,-0.26822190631857185,-1.2781737760750087
5.522628142692098,0.8586771228619952,5.667633944372113
-6.295982062971996,0.9791331793149071,-8.527371768454781
5.926676159162762,0.2308184820760283,-7.063425187425051
0.44194867814504946,-0.49736230832691364,-8.883183447197194
-6.693394073612679,1.2671458681200791,8.56310027010929
3.016668628702106,0.3712462555166184,-8.097508468097088
4.634870766048059,1.2594962645285817,5.552136435736639
2.7526993100347683,-0.8110670904573287,5.7487314743627875
5.088596105901482,-0.4049897379491715,5.1773941556168355
-0.12220238131820793,-0.35,-2.4967214697149154
3.4731757311542863,0.29788154784559306,6.812203283903083
-7.816796157413365,1.2757733130115922,0.9268981344070382
5.329429711682474,-0.5152906717871484,2.4008480326303605
3.4181755149384188,1.9492898156599188,11.022688500680186
-8.258664962375097,0.8462995350145089,-5.174063715158424
5.843293430166935,1.2431372128869753,-3.8600503280270235
-8.17211809786405,1.5352412643977444,6.515844629345056
1.3782991640353948,-0.27145370040524397,-7.950371723206657
3.4000268211083995,0.9483423107401183,-6.330483707116199
-1.298867945862238,0.29002733988773743,-8.948785011408859
0.2639919880816878,0.9938348307724783,8.546662601407803
6.117819562930729,-1.2225660758844417,2.391381106386855
7.24850033814301,0.5176540238741385,4.041081708740018
7.022981975439303,0.8018257773050844,-2.4984363394682196
8.972411716819614,1.3751108548573023,2.6641358772768564
-9.601226773373607,1.6183222812711466,0.5416692072887421
-3.7997716699684765,2.35607034902168,10.31673080403078
5.730901505690113,0.6244849422190588,6.468901793290009
-4.450352131358703,0.3255422975301588,-7.158043281933414
-8.743265766307914,0.9655510579561633,-0.825061118254974
-8.996569958757533,1.3820215343565758,5.276412668595866
